x,y,z,C,R,G,B
22.562367, -6.199065, 5.001251, 35, 0.970608, 0.316403, 0.719439
22.613137, -5.323880, 4.729859, 35, 0.970608, 0.316403, 0.719439
22.604248, -4.451603, 4.464446, 35, 0.970608, 0.316403, 0.719439
22.569020, -6.204282, 4.107785, 35, 0.970608, 0.316403, 0.719439
22.590621, -5.324822, 3.844837, 35, 0.970608, 0.316403, 0.719439
22.645527, -4.477389, 3.600398, 35, 0.970608, 0.316403, 0.719439
22.620242, -7.124350, 3.503290, 35, 0.970608, 0.316403, 0.719439
22.592144, -6.218698, 3.230257, 35, 0.970608, 0.316403, 0.719439
22.648198, -5.350912, 2.982002, 35, 0.970608, 0.316403, 0.719439
11.583346, -3.696014, 3.716365, 35, 0.970608, 0.316403, 0.719439
11.638476, -3.233289, 3.549619, 35, 0.970608, 0.316403, 0.719439
11.608097, -2.756843, 3.378149, 35, 0.970608, 0.316403, 0.719439
12.104299, -2.399755, 3.367017, 35, 0.970608, 0.316403, 0.719439
12.340196, -3.933002, 3.417175, 35, 0.970608, 0.316403, 0.719439
13.036931, -3.621795, 3.423283, 35, 0.970608, 0.316403, 0.719439
13.637145, -3.249541, 3.402682, 35, 0.970608, 0.316403, 0.719439
22.525007, -7.171689, 5.300005, 35, 0.970608, 0.316403, 0.719439
22.536648, -6.266422, 4.999788, 35, 0.970608, 0.316403, 0.719439
22.619574, -5.398691, 4.734647, 35, 0.970608, 0.316403, 0.719439
22.553904, -4.513610, 4.457217, 35, 0.970608, 0.316403, 0.719439
22.584989, -6.283262, 4.114180, 35, 0.970608, 0.316403, 0.719439
22.578977, -5.395250, 3.845654, 35, 0.970608, 0.316403, 0.719439
22.642339, -4.548984, 3.602094, 35, 0.970608, 0.316403, 0.719439
22.629386, -7.203617, 3.508113, 35, 0.970608, 0.316403, 0.719439
22.579639, -6.289841, 3.231213, 35, 0.970608, 0.316403, 0.719439
22.644215, -5.423373, 2.983655, 35, 0.970608, 0.316403, 0.719439
11.571042, -3.731241, 3.716073, 35, 0.970608, 0.316403, 0.719439
11.598023, -3.260412, 3.540316, 35, 0.970608, 0.316403, 0.719439
11.610811, -2.795146, 3.381418, 35, 0.970608, 0.316403, 0.719439
12.104445, -2.438403, 3.369123, 35, 0.970608, 0.316403, 0.719439
12.318868, -3.967878, 3.414624, 35, 0.970608, 0.316403, 0.719439
13.047224, -3.667809, 3.428924, 35, 0.970608, 0.316403, 0.719439
13.632779, -3.292733, 3.404097, 35, 0.970608, 0.316403, 0.719439
22.527049, -7.248531, 5.305693, 35, 0.970608, 0.316403, 0.719439
22.459893, -6.319377, 4.987037, 35, 0.970608, 0.316403, 0.719439
22.548615, -5.454928, 4.723275, 35, 0.970608, 0.316403, 0.719439
22.614029, -4.597845, 4.471866, 35, 0.970608, 0.316403, 0.719439
22.548000, -7.255273, 4.396024, 35, 0.970608, 0.316403, 0.719439
22.568451, -6.353323, 4.114699, 35, 0.970608, 0.316403, 0.719439
22.574782, -5.467515, 3.847779, 35, 0.970608, 0.316403, 0.719439
22.644735, -4.621788, 3.604713, 35, 0.970608, 0.316403, 0.719439
22.636372, -7.282401, 3.512643, 35, 0.970608, 0.316403, 0.719439
22.571677, -6.362310, 3.232852, 35, 0.970608, 0.316403, 0.719439
22.643856, -5.496797, 2.985815, 35, 0.970608, 0.316403, 0.719439
11.552266, -3.764352, 3.713734, 35, 0.970608, 0.316403, 0.719439
11.587042, -3.295717, 3.540034, 35, 0.970608, 0.316403, 0.719439
11.605920, -2.831666, 3.382508, 35, 0.970608, 0.316403, 0.719439
12.098798, -2.475915, 3.369649, 35, 0.970608, 0.316403, 0.719439
12.302959, -4.004456, 3.413603, 35, 0.970608, 0.316403, 0.719439
13.031248, -3.706494, 3.427698, 35, 0.970608, 0.316403, 0.719439
13.620724, -3.334080, 3.403626, 35, 0.970608, 0.316403, 0.719439
22.575229, -7.340541, 5.322319, 35, 0.970608, 0.316403, 0.719439
22.554206, -6.420651, 5.012329, 35, 0.970608, 0.316403, 0.719439
22.604104, -5.541814, 4.738437, 35, 0.970608, 0.316403, 0.719439
22.614238, -4.670181, 4.474719, 35, 0.970608, 0.316403, 0.719439
22.571451, -7.339313, 4.404965, 35, 0.970608, 0.316403, 0.719439
22.515698, -6.413088, 4.108649, 35, 0.970608, 0.316403, 0.719439
22.632636, -5.555091, 3.860526, 35, 0.970608, 0.316403, 0.719439
22.635286, -4.692242, 3.605484, 35, 0.970608, 0.316403, 0.719439
22.652496, -7.364354, 3.518634, 35, 0.970608, 0.316403, 0.719439
22.570152, -6.436691, 3.235446, 35, 0.970608, 0.316403, 0.719439
22.607622, -5.561503, 2.983273, 35, 0.970608, 0.316403, 0.719439
11.522496, -3.793795, 3.707888, 35, 0.970608, 0.316403, 0.719439
11.587941, -3.334433, 3.543417, 35, 0.970608, 0.316403, 0.719439
11.613990, -2.871416, 3.387412, 35, 0.970608, 0.316403, 0.719439
12.092089, -2.513218, 3.369912, 35, 0.970608, 0.316403, 0.719439
12.286942, -4.040974, 3.412583, 35, 0.970608, 0.316403, 0.719439
13.009567, -3.743506, 3.425000, 35, 0.970608, 0.316403, 0.719439
13.687775, -3.395036, 3.422967, 35, 0.970608, 0.316403, 0.719439
22.564653, -7.413726, 5.325164, 35, 0.970608, 0.316403, 0.719439
22.579507, -6.502807, 5.022362, 35, 0.970608, 0.316403, 0.719439
22.558466, -5.604049, 4.732453, 35, 0.970608, 0.316403, 0.719439
22.621902, -4.744172, 4.479095, 35, 0.970608, 0.316403, 0.719439
22.560971, -7.412516, 4.407337, 35, 0.970608, 0.316403, 0.719439
22.269718, -6.416957, 4.067336, 35, 0.970608, 0.316403, 0.719439
22.612613, -5.623786, 3.860036, 35, 0.970608, 0.316403, 0.719439
22.632386, -4.764106, 3.607333, 35, 0.970608, 0.316403, 0.719439
22.656112, -7.442461, 3.522726, 35, 0.970608, 0.316403, 0.719439
22.620732, -6.526225, 3.245552, 35, 0.970608, 0.316403, 0.719439
22.631839, -5.641152, 2.988739, 35, 0.970608, 0.316403, 0.719439
11.468153, -3.814940, 3.694150, 35, 0.970608, 0.316403, 0.719439
11.597002, -3.375600, 3.549338, 35, 0.970608, 0.316403, 0.719439
11.613526, -2.909138, 3.389864, 35, 0.970608, 0.316403, 0.719439
12.081491, -2.549706, 3.369123, 35, 0.970608, 0.316403, 0.719439
12.307519, -4.089627, 3.421767, 35, 0.970608, 0.316403, 0.719439
13.010121, -3.786924, 3.428188, 35, 0.970608, 0.316403, 0.719439
13.664099, -3.433698, 3.419665, 35, 0.970608, 0.316403, 0.719439
22.535320, -7.480766, 5.323632, 35, 0.970608, 0.316403, 0.719439
22.602935, -5.688776, 4.745420, 35, 0.970608, 0.316403, 0.719439
22.601480, -4.812326, 4.477954, 35, 0.970608, 0.316403, 0.719439
22.558653, -7.488512, 4.411352, 35, 0.970608, 0.316403, 0.719439
22.584731, -5.690482, 3.858238, 35, 0.970608, 0.316403, 0.719439
22.624428, -4.834965, 3.608412, 35, 0.970608, 0.316403, 0.719439
22.623783, -7.508817, 3.521265, 35, 0.970608, 0.316403, 0.719439
22.590381, -5.704487, 2.985561, 35, 0.970608, 0.316403, 0.719439
11.431013, -3.841576, 3.685965, 35, 0.970608, 0.316403, 0.719439
11.596715, -3.414144, 3.552439, 35, 0.970608, 0.316403, 0.719439
11.612007, -2.946647, 3.392043, 35, 0.970608, 0.316403, 0.719439
12.071725, -2.586356, 3.368596, 35, 0.970608, 0.316403, 0.719439
12.287581, -4.124905, 3.419726, 35, 0.970608, 0.316403, 0.719439
12.975193, -3.819976, 3.422056, 35, 0.970608, 0.316403, 0.719439
13.658209, -3.476801, 3.420844, 35, 0.970608, 0.316403, 0.719439
22.588408, -4.865942, 5.372816, 35, 0.970608, 0.316403, 0.719439
22.552045, -7.563210, 5.333040, 35, 0.970608, 0.316403, 0.719439
22.561694, -6.647864, 5.027379, 35, 0.970608, 0.316403, 0.719439
22.616710, -5.766083, 4.752004, 35, 0.970608, 0.316403, 0.719439
22.608680, -4.886414, 4.482329, 35, 0.970608, 0.316403, 0.719439
22.571926, -7.569878, 4.418469, 35, 0.970608, 0.316403, 0.719439
22.609226, -5.770479, 3.865429, 35, 0.970608, 0.316403, 0.719439
22.622040, -4.907075, 3.610415, 35, 0.970608, 0.316403, 0.719439
22.618460, -7.584166, 3.524041, 35, 0.970608, 0.316403, 0.719439
22.609715, -6.673594, 3.249785, 35, 0.970608, 0.316403, 0.719439
22.630431, -5.788515, 2.993187, 35, 0.970608, 0.316403, 0.719439
11.361217, -3.856952, 3.667258, 35, 0.970608, 0.316403, 0.719439
11.599059, -3.453539, 3.556386, 35, 0.970608, 0.316403, 0.719439
11.621551, -2.987049, 3.397492, 35, 0.970608, 0.316403, 0.719439
12.056192, -2.621739, 3.366490, 35, 0.970608, 0.316403, 0.719439
12.273953, -4.162273, 3.419471, 35, 0.970608, 0.316403, 0.719439
12.965270, -3.860318, 3.422547, 35, 0.970608, 0.316403, 0.719439
13.655006, -3.520629, 3.422731, 35, 0.970608, 0.316403, 0.719439
22.594307, -4.939796, 5.377799, 35, 0.970608, 0.316403, 0.719439
22.541673, -7.636747, 5.336102, 35, 0.970608, 0.316403, 0.719439
22.532758, -6.714537, 5.025497, 35, 0.970608, 0.316403, 0.719439
22.594168, -5.834218, 4.751006, 35, 0.970608, 0.316403, 0.719439
22.608925, -4.959119, 4.485373, 35, 0.970608, 0.316403, 0.719439
22.525316, -7.631205, 4.413907, 35, 0.970608, 0.316403, 0.719439
22.588551, -5.839076, 3.864939, 35, 0.970608, 0.316403, 0.719439
22.616528, -4.978580, 3.611956, 35, 0.970608, 0.316403, 0.719439
22.626945, -7.664314, 3.529010, 35, 0.970608, 0.316403, 0.719439
22.609069, -6.748879, 3.252653, 35, 0.970608, 0.316403, 0.719439
22.587601, -5.851449, 2.989882, 35, 0.970608, 0.316403, 0.719439
11.313146, -3.879382, 3.655566, 35, 0.970608, 0.316403, 0.719439
11.609540, -3.495470, 3.562871, 35, 0.970608, 0.316403, 0.719439
11.622574, -3.025355, 3.400489, 35, 0.970608, 0.316403, 0.719439
12.054685, -2.660170, 3.368333, 35, 0.970608, 0.316403, 0.719439
12.254722, -4.197716, 3.417685, 35, 0.970608, 0.316403, 0.719439
12.946867, -3.898121, 3.420830, 35, 0.970608, 0.316403, 0.719439
13.646021, -3.562996, 3.423203, 35, 0.970608, 0.316403, 0.719439
22.570487, -5.007192, 5.375761, 35, 0.970608, 0.316403, 0.719439
22.531985, -7.710606, 5.339384, 35, 0.970608, 0.316403, 0.719439
22.557933, -6.797460, 5.035740, 35, 0.970608, 0.316403, 0.719439
22.572370, -5.902516, 4.750208, 35, 0.970608, 0.316403, 0.719439
22.615644, -5.033365, 4.489749, 35, 0.970608, 0.316403, 0.719439
22.512030, -7.703778, 4.415914, 35, 0.970608, 0.316403, 0.719439
22.583893, -5.911846, 3.867227, 35, 0.970608, 0.316403, 0.719439
22.635862, -5.055697, 3.617504, 35, 0.970608, 0.316403, 0.719439
22.578051, -7.725050, 3.525064, 35, 0.970608, 0.316403, 0.719439
22.641365, -6.834242, 3.260301, 35, 0.970608, 0.316403, 0.719439
22.606996, -5.061678, 2.746882, 35, 0.970608, 0.316403, 0.719439
11.271370, -3.903743, 3.645919, 35, 0.970608, 0.316403, 0.719439
11.612529, -3.535262, 3.567100, 35, 0.970608, 0.316403, 0.719439
11.615099, -3.061489, 3.401033, 35, 0.970608, 0.316403, 0.719439
12.060589, -2.700302, 3.372282, 35, 0.970608, 0.316403, 0.719439
12.238131, -4.234028, 3.416665, 35, 0.970608, 0.316403, 0.719439
12.941340, -3.939799, 3.422547, 35, 0.970608, 0.316403, 0.719439
13.632208, -3.604100, 3.422495, 35, 0.970608, 0.316403, 0.719439
22.567373, -5.079194, 5.378705, 35, 0.970608, 0.316403, 0.719439
22.535891, -7.789260, 5.345947, 35, 0.970608, 0.316403, 0.719439
22.551004, -6.870910, 5.038875, 35, 0.970608, 0.316403, 0.719439
22.591098, -5.981521, 4.757989, 35, 0.970608, 0.316403, 0.719439
22.610630, -5.105103, 4.491841, 35, 0.970608, 0.316403, 0.719439
22.586793, -7.806853, 4.435256, 35, 0.970608, 0.316403, 0.719439
22.589489, -5.987424, 3.871313, 35, 0.970608, 0.316403, 0.719439
22.628918, -5.127084, 3.618891, 35, 0.970608, 0.316403, 0.719439
22.582295, -7.803975, 3.529448, 35, 0.970608, 0.316403, 0.719439
22.624082, -6.904829, 3.260847, 35, 0.970608, 0.316403, 0.719439
22.613633, -5.136070, 2.749590, 35, 0.970608, 0.316403, 0.719439
11.235870, -3.930096, 3.638320, 35, 0.970608, 0.316403, 0.719439
11.607130, -3.572566, 3.568791, 35, 0.970608, 0.316403, 0.719439
11.615877, -3.099838, 3.404030, 35, 0.970608, 0.316403, 0.719439
12.058833, -2.738787, 3.374124, 35, 0.970608, 0.316403, 0.719439
12.225084, -4.271555, 3.416665, 35, 0.970608, 0.316403, 0.719439
12.934751, -3.981195, 3.424019, 35, 0.970608, 0.316403, 0.719439
13.621086, -3.645906, 3.422495, 35, 0.970608, 0.316403, 0.719439
22.589668, -5.157078, 5.387764, 35, 0.970608, 0.316403, 0.719439
22.501753, -7.854825, 5.343541, 35, 0.970608, 0.316403, 0.719439
22.540098, -6.943230, 5.041174, 35, 0.970608, 0.316403, 0.719439
22.578321, -6.052324, 4.759186, 35, 0.970608, 0.316403, 0.719439
22.608260, -5.177516, 4.494505, 35, 0.970608, 0.316403, 0.719439
22.572018, -7.879353, 4.437081, 35, 0.970608, 0.316403, 0.719439
22.573872, -6.057467, 3.871803, 35, 0.970608, 0.316403, 0.719439
22.636193, -5.201795, 3.622590, 35, 0.970608, 0.316403, 0.719439
22.579730, -7.880718, 3.532809, 35, 0.970608, 0.316403, 0.719439
22.625511, -6.981216, 3.264125, 35, 0.970608, 0.316403, 0.719439
22.631639, -5.213225, 2.753711, 35, 0.970608, 0.316403, 0.719439
11.212038, -3.960408, 3.634520, 35, 0.970608, 0.316403, 0.719439
11.602528, -3.610154, 3.570765, 35, 0.970608, 0.316403, 0.719439
11.610028, -3.136465, 3.405120, 35, 0.970608, 0.316403, 0.719439
12.038153, -2.772955, 3.370702, 35, 0.970608, 0.316403, 0.719439
12.221040, -4.312258, 3.419216, 35, 0.970608, 0.316403, 0.719439
12.853050, -3.999258, 3.405623, 35, 0.970608, 0.316403, 0.719439
13.605148, -3.686406, 3.421316, 35, 0.970608, 0.316403, 0.719439
22.586075, -5.229213, 5.390708, 35, 0.970608, 0.316403, 0.719439
22.509758, -7.935177, 5.351198, 35, 0.970608, 0.316403, 0.719439
22.519624, -7.012640, 5.041383, 35, 0.970608, 0.316403, 0.719439
22.570994, -6.124644, 4.761580, 35, 0.970608, 0.316403, 0.719439
22.590356, -5.246408, 4.494124, 35, 0.970608, 0.316403, 0.719439
22.555156, -7.951181, 4.438541, 35, 0.970608, 0.316403, 0.719439
22.548068, -7.024951, 4.144776, 35, 0.970608, 0.316403, 0.719439
22.581839, -6.133935, 3.876379, 35, 0.970608, 0.316403, 0.719439
22.643223, -5.276599, 3.626288, 35, 0.970608, 0.316403, 0.719439
22.570374, -7.955216, 3.535148, 35, 0.970608, 0.316403, 0.719439
22.618171, -7.055022, 3.266173, 35, 0.970608, 0.316403, 0.719439
22.609737, -5.281279, 2.753005, 35, 0.970608, 0.316403, 0.719439
11.181820, -3.988361, 3.628673, 35, 0.970608, 0.316403, 0.719439
11.613363, -3.652642, 3.577532, 35, 0.970608, 0.316403, 0.719439
11.616128, -3.176383, 3.409751, 35, 0.970608, 0.316403, 0.719439
12.009860, -2.805266, 3.365174, 35, 0.970608, 0.316403, 0.719439
12.212306, -4.351354, 3.420491, 35, 0.970608, 0.316403, 0.719439
12.849968, -4.041580, 3.408076, 35, 0.970608, 0.316403, 0.719439
13.592836, -3.727872, 3.421080, 35, 0.970608, 0.316403, 0.719439
22.570874, -5.298705, 5.390935, 35, 0.970608, 0.316403, 0.719439
22.510128, -8.013034, 5.357105, 35, 0.970608, 0.316403, 0.719439
22.564232, -7.102543, 5.056224, 35, 0.970608, 0.316403, 0.719439
22.554933, -6.194641, 4.762179, 35, 0.970608, 0.316403, 0.719439
22.558864, -5.312089, 4.491081, 35, 0.970608, 0.316403, 0.719439
22.531582, -8.020671, 4.438723, 35, 0.970608, 0.316403, 0.719439
22.581838, -7.111550, 4.154975, 35, 0.970608, 0.316403, 0.719439
22.570524, -6.205279, 3.877686, 35, 0.970608, 0.316403, 0.719439
22.613465, -5.342862, 3.624131, 35, 0.970608, 0.316403, 0.719439
22.544930, -8.024092, 3.535001, 35, 0.970608, 0.316403, 0.719439
22.614371, -7.130040, 3.268768, 35, 0.970608, 0.316403, 0.719439
22.596327, -5.351306, 2.753358, 35, 0.970608, 0.316403, 0.719439
11.165033, -4.021028, 3.627212, 35, 0.970608, 0.316403, 0.719439
11.606673, -3.689708, 3.578941, 35, 0.970608, 0.316403, 0.719439
11.610965, -3.213289, 3.411113, 35, 0.970608, 0.316403, 0.719439
12.004014, -2.842765, 3.365964, 35, 0.970608, 0.316403, 0.719439
12.214366, -4.394365, 3.424828, 35, 0.970608, 0.316403, 0.719439
12.853214, -4.085977, 3.412246, 35, 0.970608, 0.316403, 0.719439
13.580399, -3.769297, 3.420844, 35, 0.970608, 0.316403, 0.719439
22.550722, -5.367024, 5.390029, 35, 0.970608, 0.316403, 0.719439
22.493704, -8.085027, 5.359074, 35, 0.970608, 0.316403, 0.719439
22.554450, -7.175590, 5.058941, 35, 0.970608, 0.316403, 0.719439
22.557536, -6.269845, 4.766767, 35, 0.970608, 0.316403, 0.719439
22.582568, -5.390848, 4.499070, 35, 0.970608, 0.316403, 0.719439
22.510570, -8.091090, 4.439453, 35, 0.970608, 0.316403, 0.719439
22.587132, -7.189461, 4.159988, 35, 0.970608, 0.316403, 0.719439
22.539975, -6.271321, 3.875725, 35, 0.970608, 0.316403, 0.719439
22.570062, -5.405770, 3.619816, 35, 0.970608, 0.316403, 0.719439
22.532307, -8.097570, 3.536901, 35, 0.970608, 0.316403, 0.719439
22.606549, -7.203898, 3.270816, 35, 0.970608, 0.316403, 0.719439
22.602979, -5.426169, 2.756184, 35, 0.970608, 0.316403, 0.719439
11.156239, -4.056570, 3.628381, 35, 0.970608, 0.316403, 0.719439
11.603521, -3.727940, 3.581479, 35, 0.970608, 0.316403, 0.719439
11.609391, -3.251231, 3.413565, 35, 0.970608, 0.316403, 0.719439
12.041201, -2.890615, 3.378862, 35, 0.970608, 0.316403, 0.719439
12.207189, -4.434128, 3.426614, 35, 0.970608, 0.316403, 0.719439
12.840619, -4.125391, 3.412246, 35, 0.970608, 0.316403, 0.719439
13.565964, -3.810155, 3.420137, 35, 0.970608, 0.316403, 0.719439
22.549300, -5.439838, 5.393653, 35, 0.970608, 0.316403, 0.719439
22.419262, -8.136024, 5.347260, 35, 0.970608, 0.316403, 0.719439
22.561190, -7.254032, 5.065420, 35, 0.970608, 0.316403, 0.719439
22.477823, -6.322041, 4.753999, 35, 0.970608, 0.316403, 0.719439
22.561151, -5.458951, 4.498119, 35, 0.970608, 0.316403, 0.719439
22.481944, -8.158771, 4.438723, 35, 0.970608, 0.316403, 0.719439
22.588409, -7.266264, 4.164309, 35, 0.970608, 0.316403, 0.719439
22.181609, -6.244996, 3.817381, 35, 0.970608, 0.316403, 0.719439
22.562012, -5.477086, 3.621203, 35, 0.970608, 0.316403, 0.719439
22.526887, -8.173746, 3.539970, 35, 0.970608, 0.316403, 0.719439
22.597542, -7.277471, 3.272728, 35, 0.970608, 0.316403, 0.719439
22.638328, -5.508166, 2.762542, 35, 0.970608, 0.316403, 0.719439
11.159900, -4.096710, 3.633643, 35, 0.970608, 0.316403, 0.719439
11.592941, -3.763818, 3.581761, 35, 0.970608, 0.316403, 0.719439
11.602139, -3.287620, 3.414383, 35, 0.970608, 0.316403, 0.719439
12.029465, -2.926858, 3.378072, 35, 0.970608, 0.316403, 0.719439
12.195343, -4.472224, 3.427124, 35, 0.970608, 0.316403, 0.719439
12.839888, -4.168658, 3.415434, 35, 0.970608, 0.316403, 0.719439
13.568232, -3.855741, 3.423675, 35, 0.970608, 0.316403, 0.719439
22.527773, -5.507836, 5.392520, 35, 0.970608, 0.316403, 0.719439
22.321815, -8.178247, 5.329977, 35, 0.970608, 0.316403, 0.719439
22.544409, -7.325027, 5.066675, 35, 0.970608, 0.316403, 0.719439
22.610061, -6.434153, 4.786119, 35, 0.970608, 0.316403, 0.719439
22.585296, -5.538195, 4.506300, 35, 0.970608, 0.316403, 0.719439
22.393108, -8.204368, 4.426132, 35, 0.970608, 0.316403, 0.719439
22.580997, -7.340402, 4.167075, 35, 0.970608, 0.316403, 0.719439
22.085492, -6.291127, 3.804143, 35, 0.970608, 0.316403, 0.719439
22.546062, -5.546516, 3.621357, 35, 0.970608, 0.316403, 0.719439
22.448758, -8.223423, 3.531640, 35, 0.970608, 0.316403, 0.719439
22.579818, -7.348298, 3.273411, 35, 0.970608, 0.316403, 0.719439
22.580827, -5.567609, 2.757597, 35, 0.970608, 0.316403, 0.719439
11.160730, -4.135913, 3.638027, 35, 0.970608, 0.316403, 0.719439
11.598661, -3.805049, 3.587117, 35, 0.970608, 0.316403, 0.719439
11.604947, -3.326912, 3.418197, 35, 0.970608, 0.316403, 0.719439
12.011061, -2.961441, 3.375440, 35, 0.970608, 0.316403, 0.719439
12.181565, -4.509618, 3.427124, 35, 0.970608, 0.316403, 0.719439
12.843619, -4.213470, 3.419849, 35, 0.970608, 0.316403, 0.719439
13.562877, -3.899230, 3.425326, 35, 0.970608, 0.316403, 0.719439
22.579786, -5.594023, 5.409053, 35, 0.970608, 0.316403, 0.719439
22.122734, -8.182378, 5.288410, 35, 0.970608, 0.316403, 0.719439
22.558995, -7.406360, 5.075035, 35, 0.970608, 0.316403, 0.719439
22.585506, -6.502134, 4.785122, 35, 0.970608, 0.316403, 0.719439
22.574868, -5.609117, 4.507632, 35, 0.970608, 0.316403, 0.719439
22.364143, -8.271666, 4.425403, 35, 0.970608, 0.316403, 0.719439
22.571472, -7.413947, 4.169495, 35, 0.970608, 0.316403, 0.719439
22.166573, -6.387812, 3.821467, 35, 0.970608, 0.316403, 0.719439
22.562495, -5.624024, 3.626751, 35, 0.970608, 0.316403, 0.719439
22.287029, -8.241818, 3.510159, 35, 0.970608, 0.316403, 0.719439
22.585400, -7.426821, 3.277508, 35, 0.970608, 0.316403, 0.719439
22.572312, -5.639026, 2.758657, 35, 0.970608, 0.316403, 0.719439
11.148884, -4.170470, 3.638320, 35, 0.970608, 0.316403, 0.719439
11.610610, -3.848464, 3.594448, 35, 0.970608, 0.316403, 0.719439
11.615940, -3.368663, 3.424463, 35, 0.970608, 0.316403, 0.719439
12.002855, -2.998510, 3.375704, 35, 0.970608, 0.316403, 0.719439
12.169484, -4.547646, 3.427635, 35, 0.970608, 0.316403, 0.719439
12.806706, -4.244923, 3.413472, 35, 0.970608, 0.316403, 0.719439
13.562982, -3.944349, 3.428392, 35, 0.970608, 0.316403, 0.719439
22.573854, -5.666116, 5.411771, 35, 0.970608, 0.316403, 0.719439
22.188940, -8.284340, 5.310287, 35, 0.970608, 0.316403, 0.719439
22.539879, -7.476766, 5.075872, 35, 0.970608, 0.316403, 0.719439
22.582307, -5.684580, 4.512578, 35, 0.970608, 0.316403, 0.719439
22.181151, -8.281432, 4.394199, 35, 0.970608, 0.316403, 0.719439
22.567317, -7.489365, 4.172952, 35, 0.970608, 0.316403, 0.719439
22.547051, -5.693702, 3.627059, 35, 0.970608, 0.316403, 0.719439
22.228273, -8.297700, 3.504898, 35, 0.970608, 0.316403, 0.719439
22.550288, -7.492017, 3.275732, 35, 0.970608, 0.316403, 0.719439
22.589561, -5.717021, 2.762895, 35, 0.970608, 0.316403, 0.719439
11.141406, -4.206681, 3.640073, 35, 0.970608, 0.316403, 0.719439
11.613306, -3.888941, 3.598959, 35, 0.970608, 0.316403, 0.719439
11.612937, -3.406451, 3.426642, 35, 0.970608, 0.316403, 0.719439
11.979571, -3.031770, 3.371755, 35, 0.970608, 0.316403, 0.719439
12.159093, -4.586325, 3.428655, 35, 0.970608, 0.316403, 0.719439
12.798219, -4.285733, 3.414698, 35, 0.970608, 0.316403, 0.719439
13.548019, -3.985119, 3.427685, 35, 0.970608, 0.316403, 0.719439
22.578076, -5.740865, 5.416980, 35, 0.970608, 0.316403, 0.719439
22.010934, -8.294912, 5.273752, 35, 0.970608, 0.316403, 0.719439
22.537233, -7.552719, 5.080470, 35, 0.970608, 0.316403, 0.719439
22.587484, -6.653052, 4.794099, 35, 0.970608, 0.316403, 0.719439
22.556198, -5.751652, 4.510865, 35, 0.970608, 0.316403, 0.719439
22.161159, -8.351524, 4.395294, 35, 0.970608, 0.316403, 0.719439
22.547969, -7.559818, 4.173643, 35, 0.970608, 0.316403, 0.719439
22.636061, -6.673802, 3.909392, 35, 0.970608, 0.316403, 0.719439
22.556278, -5.769705, 3.631374, 35, 0.970608, 0.316403, 0.719439
22.166608, -8.352252, 3.499198, 35, 0.970608, 0.316403, 0.719439
22.599510, -7.585437, 3.286248, 35, 0.970608, 0.316403, 0.719439
22.620975, -5.798874, 2.768900, 35, 0.970608, 0.316403, 0.719439
11.138277, -4.244589, 3.643289, 35, 0.970608, 0.316403, 0.719439
11.605864, -3.926089, 3.600369, 35, 0.970608, 0.316403, 0.719439
11.610733, -3.444526, 3.429094, 35, 0.970608, 0.316403, 0.719439
11.984231, -3.072102, 3.375704, 35, 0.970608, 0.316403, 0.719439
12.158520, -4.628767, 3.432482, 35, 0.970608, 0.316403, 0.719439
12.768480, -4.319385, 3.410283, 35, 0.970608, 0.316403, 0.719439
13.524552, -4.023340, 3.424854, 35, 0.970608, 0.316403, 0.719439
22.590541, -5.817880, 5.424227, 35, 0.970608, 0.316403, 0.719439
21.914244, -8.335343, 5.256688, 35, 0.970608, 0.316403, 0.719439
22.544523, -7.632174, 5.087368, 35, 0.970608, 0.316403, 0.719439
22.587627, -6.728473, 4.798488, 35, 0.970608, 0.316403, 0.719439
22.559358, -5.826227, 4.515051, 35, 0.970608, 0.316403, 0.719439
22.049049, -8.386617, 4.378141, 35, 0.970608, 0.316403, 0.719439
22.538663, -7.633699, 4.176237, 35, 0.970608, 0.316403, 0.719439
22.602243, -6.739270, 3.907104, 35, 0.970608, 0.316403, 0.719439
22.613078, -5.858207, 3.643394, 35, 0.970608, 0.316403, 0.719439
22.093722, -8.402285, 3.491745, 35, 0.970608, 0.316403, 0.719439
22.581761, -7.656644, 3.287067, 35, 0.970608, 0.316403, 0.719439
11.139484, -4.284233, 3.647966, 35, 0.970608, 0.316403, 0.719439
11.595579, -3.962297, 3.600933, 35, 0.970608, 0.316403, 0.719439
11.613935, -3.484278, 3.433180, 35, 0.970608, 0.316403, 0.719439
11.979418, -3.110067, 3.377020, 35, 0.970608, 0.316403, 0.719439
12.160508, -4.672290, 3.437074, 35, 0.970608, 0.316403, 0.719439
12.755168, -4.358538, 3.410283, 35, 0.970608, 0.316403, 0.719439
13.506561, -4.063134, 3.423439, 35, 0.970608, 0.316403, 0.719439
22.540540, -5.878802, 5.416527, 35, 0.970608, 0.316403, 0.719439
21.849396, -8.387498, 5.247281, 35, 0.970608, 0.316403, 0.719439
22.558939, -7.714277, 5.095938, 35, 0.970608, 0.316403, 0.719439
22.573446, -6.799718, 4.799885, 35, 0.970608, 0.316403, 0.719439
22.603114, -5.911557, 4.527417, 35, 0.970608, 0.316403, 0.719439
21.852486, -8.388684, 4.344201, 35, 0.970608, 0.316403, 0.719439
22.550549, -7.714925, 4.182805, 35, 0.970608, 0.316403, 0.719439
22.550291, -6.799183, 3.901711, 35, 0.970608, 0.316403, 0.719439
22.621759, -5.934575, 3.647709, 35, 0.970608, 0.316403, 0.719439
21.921916, -8.414020, 3.468656, 35, 0.970608, 0.316403, 0.719439
22.587216, -7.735838, 3.291301, 35, 0.970608, 0.316403, 0.719439
11.139660, -4.323579, 3.652350, 35, 0.970608, 0.316403, 0.719439
11.612391, -4.007870, 3.609955, 35, 0.970608, 0.316403, 0.719439
11.615160, -3.523524, 3.436722, 35, 0.970608, 0.316403, 0.719439
11.973552, -3.147786, 3.378072, 35, 0.970608, 0.316403, 0.719439
12.150624, -4.711323, 3.438349, 35, 0.970608, 0.316403, 0.719439
12.736238, -4.395752, 3.408812, 35, 0.970608, 0.316403, 0.719439
13.494963, -4.104835, 3.423675, 35, 0.970608, 0.316403, 0.719439
22.528991, -5.949669, 5.418112, 35, 0.970608, 0.316403, 0.719439
21.739853, -8.422063, 5.227153, 35, 0.970608, 0.316403, 0.719439
22.545333, -7.786963, 5.098237, 35, 0.970608, 0.316403, 0.719439
22.556227, -6.870082, 4.800683, 35, 0.970608, 0.316403, 0.719439
22.569688, -5.976853, 4.524373, 35, 0.970608, 0.316403, 0.719439
21.764304, -8.431535, 4.331792, 35, 0.970608, 0.316403, 0.719439
22.523051, -7.782787, 4.182114, 35, 0.970608, 0.316403, 0.719439
22.563298, -6.878691, 3.907594, 35, 0.970608, 0.316403, 0.719439
22.605355, -6.004457, 3.648017, 35, 0.970608, 0.316403, 0.719439
21.893231, -8.480164, 3.468218, 35, 0.970608, 0.316403, 0.719439
22.596144, -7.816433, 3.296080, 35, 0.970608, 0.316403, 0.719439
11.139700, -4.362966, 3.656735, 35, 0.970608, 0.316403, 0.719439
11.627219, -4.052952, 3.618413, 35, 0.970608, 0.316403, 0.719439
11.628212, -3.566478, 3.443805, 35, 0.970608, 0.316403, 0.719439
11.966636, -3.185250, 3.378862, 35, 0.970608, 0.316403, 0.719439
12.128909, -4.745760, 3.436308, 35, 0.970608, 0.316403, 0.719439
12.711707, -4.430976, 3.405868, 35, 0.970608, 0.316403, 0.719439
13.476732, -4.144504, 3.422259, 35, 0.970608, 0.316403, 0.719439
22.546388, -6.028319, 5.426719, 35, 0.970608, 0.316403, 0.719439
21.686648, -8.478062, 5.220590, 35, 0.970608, 0.316403, 0.719439
22.524107, -7.857061, 5.098864, 35, 0.970608, 0.316403, 0.719439
22.540664, -6.940981, 4.801880, 35, 0.970608, 0.316403, 0.719439
22.589174, -6.056237, 4.531983, 35, 0.970608, 0.316403, 0.719439
21.751153, -8.503279, 4.334347, 35, 0.970608, 0.316403, 0.719439
22.584622, -7.881707, 4.198017, 35, 0.970608, 0.316403, 0.719439
22.575087, -6.958052, 3.913314, 35, 0.970608, 0.316403, 0.719439
22.611635, -6.080452, 3.652024, 35, 0.970608, 0.316403, 0.719439
21.691127, -8.478504, 3.440306, 35, 0.970608, 0.316403, 0.719439
22.588891, -7.891601, 3.298538, 35, 0.970608, 0.316403, 0.719439
11.140493, -4.402745, 3.661412, 35, 0.970608, 0.316403, 0.719439
11.658170, -4.103896, 3.631946, 35, 0.970608, 0.316403, 0.719439
11.625486, -3.604701, 3.446257, 35, 0.970608, 0.316403, 0.719439
11.980095, -3.228223, 3.385443, 35, 0.970608, 0.316403, 0.719439
12.104400, -4.779043, 3.433502, 35, 0.970608, 0.316403, 0.719439
12.758407, -4.491200, 3.422056, 35, 0.970608, 0.316403, 0.719439
13.523344, -4.204294, 3.437355, 35, 0.970608, 0.316403, 0.719439
22.513685, -6.093645, 5.423321, 35, 0.970608, 0.316403, 0.719439
21.420901, -8.450025, 5.162834, 35, 0.970608, 0.316403, 0.719439
22.497130, -7.925152, 5.098237, 35, 0.970608, 0.316403, 0.719439
22.504292, -7.005442, 4.798688, 35, 0.970608, 0.316403, 0.719439
22.592280, -6.131426, 4.536358, 35, 0.970608, 0.316403, 0.719439
21.703013, -8.561312, 4.329968, 35, 0.970608, 0.316403, 0.719439
22.521320, -7.937208, 4.190757, 35, 0.970608, 0.316403, 0.719439
22.577180, -7.034616, 3.917400, 35, 0.970608, 0.316403, 0.719439
22.590014, -6.149016, 3.651562, 35, 0.970608, 0.316403, 0.719439
21.589552, -8.515248, 3.428323, 35, 0.970608, 0.316403, 0.719439
22.554298, -7.957240, 3.297036, 35, 0.970608, 0.316403, 0.719439
11.136704, -4.440799, 3.664627, 35, 0.970608, 0.316403, 0.719439
11.651852, -4.141893, 3.633919, 35, 0.970608, 0.316403, 0.719439
11.623554, -3.643228, 3.448981, 35, 0.970608, 0.316403, 0.719439
11.965480, -3.263693, 3.384127, 35, 0.970608, 0.316403, 0.719439
12.088782, -4.815798, 3.433247, 35, 0.970608, 0.316403, 0.719439
12.700722, -4.514736, 3.410283, 35, 0.970608, 0.316403, 0.719439
13.507600, -4.244889, 3.436648, 35, 0.970608, 0.316403, 0.719439
22.534339, -6.173496, 5.432834, 35, 0.970608, 0.316403, 0.719439
21.400316, -8.517869, 5.164146, 35, 0.970608, 0.316403, 0.719439
22.493900, -8.001673, 5.103044, 35, 0.970608, 0.316403, 0.719439
22.507931, -7.082393, 4.804074, 35, 0.970608, 0.316403, 0.719439
22.549696, -6.194208, 4.531602, 35, 0.970608, 0.316403, 0.719439
21.502164, -8.558408, 4.295115, 35, 0.970608, 0.316403, 0.719439
22.535836, -8.020135, 4.198017, 35, 0.970608, 0.316403, 0.719439
22.614774, -7.122519, 3.927696, 35, 0.970608, 0.316403, 0.719439
22.583426, -6.221705, 3.653565, 35, 0.970608, 0.316403, 0.719439
21.507257, -8.559131, 3.419409, 35, 0.970608, 0.316403, 0.719439
22.599767, -8.051332, 3.307278, 35, 0.970608, 0.316403, 0.719439
11.125689, -4.476016, 3.665504, 35, 0.970608, 0.316403, 0.719439
11.634575, -4.176000, 3.632510, 35, 0.970608, 0.316403, 0.719439
11.619660, -3.681196, 3.451161, 35, 0.970608, 0.316403, 0.719439
11.939603, -3.296023, 3.379652, 35, 0.970608, 0.316403, 0.719439
12.073951, -4.852863, 3.433247, 35, 0.970608, 0.316403, 0.719439
12.689549, -4.554662, 3.411019, 35, 0.970608, 0.316403, 0.719439
13.445426, -4.270718, 3.424147, 35, 0.970608, 0.316403, 0.719439
22.509661, -6.241040, 5.431475, 35, 0.970608, 0.316403, 0.719439
21.326997, -8.564576, 5.152770, 35, 0.970608, 0.316403, 0.719439
22.406663, -8.048166, 5.088831, 35, 0.970608, 0.316403, 0.719439
22.603757, -7.188833, 4.829212, 35, 0.970608, 0.316403, 0.719439
22.549503, -6.268619, 4.535407, 35, 0.970608, 0.316403, 0.719439
21.289680, -8.549589, 4.257890, 35, 0.970608, 0.316403, 0.719439
22.521321, -8.092900, 4.199918, 35, 0.970608, 0.316403, 0.719439
22.612557, -7.198151, 3.931128, 35, 0.970608, 0.316403, 0.719439
22.584219, -6.296532, 3.656801, 35, 0.970608, 0.316403, 0.719439
21.326669, -8.563147, 3.394858, 35, 0.970608, 0.316403, 0.719439
22.566571, -8.117612, 3.306049, 35, 0.970608, 0.316403, 0.719439
11.118108, -4.512646, 3.667550, 35, 0.970608, 0.316403, 0.719439
11.628024, -4.213963, 3.634483, 35, 0.970608, 0.316403, 0.719439
11.611977, -3.718001, 3.452250, 35, 0.970608, 0.316403, 0.719439
11.916426, -3.329004, 3.375967, 35, 0.970608, 0.316403, 0.719439
12.063486, -4.891700, 3.434523, 35, 0.970608, 0.316403, 0.719439
12.683719, -4.596544, 3.413227, 35, 0.970608, 0.316403, 0.719439
13.430410, -4.311354, 3.423675, 35, 0.970608, 0.316403, 0.719439
22.474465, -6.305597, 5.427625, 35, 0.970608, 0.316403, 0.719439
21.300622, -8.629966, 5.152770, 35, 0.970608, 0.316403, 0.719439
22.429671, -8.134208, 5.099700, 35, 0.970608, 0.316403, 0.719439
22.561072, -7.251550, 4.824823, 35, 0.970608, 0.316403, 0.719439
22.417703, -6.306135, 4.512768, 35, 0.970608, 0.316403, 0.719439
21.191360, -8.585698, 4.243474, 35, 0.970608, 0.316403, 0.719439
22.491756, -8.160277, 4.199054, 35, 0.970608, 0.316403, 0.719439
22.592245, -7.268096, 3.931455, 35, 0.970608, 0.316403, 0.719439
22.606636, -6.377594, 3.663582, 35, 0.970608, 0.316403, 0.719439
21.294796, -8.626308, 3.393981, 35, 0.970608, 0.316403, 0.719439
22.524800, -8.180720, 3.303591, 35, 0.970608, 0.316403, 0.719439
11.121911, -4.553982, 3.673396, 35, 0.970608, 0.316403, 0.719439
11.619546, -4.251266, 3.635893, 35, 0.970608, 0.316403, 0.719439
11.600516, -3.753608, 3.452250, 35, 0.970608, 0.316403, 0.719439
11.882019, -3.358724, 3.369123, 35, 0.970608, 0.316403, 0.719439
12.048422, -4.928687, 3.434523, 35, 0.970608, 0.316403, 0.719439
12.680482, -4.639433, 3.416170, 35, 0.970608, 0.316403, 0.719439
13.448548, -4.362733, 3.431694, 35, 0.970608, 0.316403, 0.719439
22.512171, -6.390743, 5.441440, 35, 0.970608, 0.316403, 0.719439
21.161139, -8.649127, 5.125423, 35, 0.970608, 0.316403, 0.719439
22.359614, -8.186508, 5.089458, 35, 0.970608, 0.316403, 0.719439
22.565744, -7.329511, 4.830608, 35, 0.970608, 0.316403, 0.719439
22.583321, -6.427556, 4.550056, 35, 0.970608, 0.316403, 0.719439
21.149448, -8.644349, 4.240372, 35, 0.970608, 0.316403, 0.719439
22.414822, -8.210272, 4.189373, 35, 0.970608, 0.316403, 0.719439
22.587668, -7.343169, 3.934560, 35, 0.970608, 0.316403, 0.719439
22.594565, -6.449090, 3.664815, 35, 0.970608, 0.316403, 0.719439
21.201381, -8.664280, 3.383313, 35, 0.970608, 0.316403, 0.719439
22.467042, -8.237850, 3.298811, 35, 0.970608, 0.316403, 0.719439
11.129100, -4.596844, 3.680411, 35, 0.970608, 0.316403, 0.719439
11.634349, -4.297199, 3.644633, 35, 0.970608, 0.316403, 0.719439
11.595347, -3.791274, 3.454158, 35, 0.970608, 0.316403, 0.719439
11.854963, -3.390387, 3.364384, 35, 0.970608, 0.316403, 0.719439
12.038607, -4.967841, 3.436053, 35, 0.970608, 0.316403, 0.719439
12.687105, -4.686040, 3.421811, 35, 0.970608, 0.316403, 0.719439
13.436947, -4.404578, 3.432166, 35, 0.970608, 0.316403, 0.719439
22.557990, -6.478600, 5.457294, 35, 0.970608, 0.316403, 0.719439
20.965810, -8.644454, 5.084513, 35, 0.970608, 0.316403, 0.719439
22.318799, -8.249305, 5.085904, 35, 0.970608, 0.316403, 0.719439
22.536635, -7.396568, 4.829212, 35, 0.970608, 0.316403, 0.719439
22.627648, -6.515281, 4.562992, 35, 0.970608, 0.316403, 0.719439
21.108284, -8.703197, 4.237453, 35, 0.970608, 0.316403, 0.719439
22.285138, -8.240400, 4.169841, 35, 0.970608, 0.316403, 0.719439
22.593152, -7.421669, 3.939463, 35, 0.970608, 0.316403, 0.719439
22.570875, -6.517282, 3.664198, 35, 0.970608, 0.316403, 0.719439
21.126225, -8.709300, 3.375568, 35, 0.970608, 0.316403, 0.719439
22.449095, -8.309491, 3.299904, 35, 0.970608, 0.316403, 0.719439
16.983846, -7.032140, -0.661191, 35, 0.970608, 0.316403, 0.719439
11.122890, -4.634276, 3.683042, 35, 0.970608, 0.316403, 0.719439
11.625604, -4.334549, 3.646043, 35, 0.970608, 0.316403, 0.719439
11.594625, -3.830452, 3.457427, 35, 0.970608, 0.316403, 0.719439
11.859333, -3.431031, 3.368596, 35, 0.970608, 0.316403, 0.719439
12.021524, -5.004008, 3.435543, 35, 0.970608, 0.316403, 0.719439
12.654502, -4.718168, 3.416906, 35, 0.970608, 0.316403, 0.719439
13.414145, -4.442725, 3.429807, 35, 0.970608, 0.316403, 0.719439
20.858106, -8.675011, 5.064824, 35, 0.970608, 0.316403, 0.719439
22.098230, -8.244926, 5.041383, 35, 0.970608, 0.316403, 0.719439
22.564061, -7.482329, 4.839985, 35, 0.970608, 0.316403, 0.719439
21.066051, -8.761497, 4.234350, 35, 0.970608, 0.316403, 0.719439
22.227455, -8.296676, 4.163791, 35, 0.970608, 0.316403, 0.719439
22.583383, -7.495300, 3.941751, 35, 0.970608, 0.316403, 0.719439
21.040033, -8.749384, 3.366070, 35, 0.970608, 0.316403, 0.719439
22.117266, -8.263904, 3.254838, 35, 0.970608, 0.316403, 0.719439
11.111265, -4.669491, 3.683919, 35, 0.970608, 0.316403, 0.719439
11.609558, -4.369181, 3.645197, 35, 0.970608, 0.316403, 0.719439
11.601072, -3.872098, 3.462875, 35, 0.970608, 0.316403, 0.719439
11.820049, -3.459000, 3.360436, 35, 0.970608, 0.316403, 0.719439
12.012356, -5.043486, 3.437329, 35, 0.970608, 0.316403, 0.719439
12.645410, -4.759018, 3.418377, 35, 0.970608, 0.316403, 0.719439
13.413354, -4.488176, 3.433110, 35, 0.970608, 0.316403, 0.719439
22.526223, -6.619363, 5.459332, 35, 0.970608, 0.316403, 0.719439
20.832291, -8.739339, 5.065042, 35, 0.970608, 0.316403, 0.719439
22.002364, -8.286146, 5.025288, 35, 0.970608, 0.316403, 0.719439
22.559582, -7.557745, 4.843976, 35, 0.970608, 0.316403, 0.719439
22.593837, -6.655942, 4.564324, 35, 0.970608, 0.316403, 0.719439
20.991019, -8.805926, 4.224679, 35, 0.970608, 0.316403, 0.719439
21.932759, -8.263429, 4.113316, 35, 0.970608, 0.316403, 0.719439
22.579926, -7.571136, 3.945183, 35, 0.970608, 0.316403, 0.719439
22.591106, -6.673567, 3.674061, 35, 0.970608, 0.316403, 0.719439
20.860744, -8.749990, 3.341665, 35, 0.970608, 0.316403, 0.719439
22.072345, -8.324379, 3.251971, 35, 0.970608, 0.316403, 0.719439
11.086321, -4.699079, 3.680411, 35, 0.970608, 0.316403, 0.719439
11.611346, -4.410570, 3.649990, 35, 0.970608, 0.316403, 0.719439
11.599167, -3.911053, 3.465872, 35, 0.970608, 0.316403, 0.719439
11.773303, -3.484569, 3.350170, 35, 0.970608, 0.316403, 0.719439
11.997716, -5.080693, 3.437584, 35, 0.970608, 0.316403, 0.719439
12.623501, -4.795037, 3.416415, 35, 0.970608, 0.316403, 0.719439
13.406886, -4.531796, 3.434996, 35, 0.970608, 0.316403, 0.719439
22.545958, -6.700372, 5.469071, 35, 0.970608, 0.316403, 0.719439
20.783815, -8.794085, 5.059791, 35, 0.970608, 0.316403, 0.719439
21.982323, -8.355693, 5.026542, 35, 0.970608, 0.316403, 0.719439
22.581771, -7.642314, 4.853751, 35, 0.970608, 0.316403, 0.719439
22.594010, -6.731394, 4.568509, 35, 0.970608, 0.316403, 0.719439
20.815404, -8.807451, 4.194753, 35, 0.970608, 0.316403, 0.719439
21.946893, -8.345733, 4.120749, 35, 0.970608, 0.316403, 0.719439
22.568739, -7.644489, 3.947307, 35, 0.970608, 0.316403, 0.719439
22.609340, -6.754440, 3.680380, 35, 0.970608, 0.316403, 0.719439
20.823779, -8.809709, 3.340058, 35, 0.970608, 0.316403, 0.719439
22.013373, -8.379370, 3.247054, 35, 0.970608, 0.316403, 0.719439
11.056904, -4.726679, 3.675442, 35, 0.970608, 0.316403, 0.719439
11.606719, -4.449607, 3.652809, 35, 0.970608, 0.316403, 0.719439
11.591668, -3.948171, 3.467234, 35, 0.970608, 0.316403, 0.719439
11.764406, -3.521226, 3.350696, 35, 0.970608, 0.316403, 0.719439
11.986519, -5.119377, 3.438859, 35, 0.970608, 0.316403, 0.719439
12.600583, -4.830620, 3.414208, 35, 0.970608, 0.316403, 0.719439
13.388322, -4.571336, 3.433817, 35, 0.970608, 0.316403, 0.719439
22.551414, -6.777360, 5.475412, 35, 0.970608, 0.316403, 0.719439
20.728018, -8.845552, 5.052791, 35, 0.970608, 0.316403, 0.719439
21.884455, -8.395424, 5.010030, 35, 0.970608, 0.316403, 0.719439
22.548946, -7.708388, 4.851756, 35, 0.970608, 0.316403, 0.719439
22.585472, -6.804361, 4.570983, 35, 0.970608, 0.316403, 0.719439
20.667107, -8.819558, 4.170301, 35, 0.970608, 0.316403, 0.719439
21.904634, -8.406673, 4.117638, 35, 0.970608, 0.316403, 0.719439
22.561048, -7.719122, 3.950086, 35, 0.970608, 0.316403, 0.719439
22.609320, -6.830058, 3.683770, 35, 0.970608, 0.316403, 0.719439
20.744788, -8.851425, 3.331728, 35, 0.970608, 0.316403, 0.719439
21.975539, -8.442248, 3.245279, 35, 0.970608, 0.316403, 0.719439
16.897193, -7.240422, -0.661227, 35, 0.970608, 0.316403, 0.719439
11.020395, -4.751114, 3.668135, 35, 0.970608, 0.316403, 0.719439
11.604645, -4.489695, 3.656475, 35, 0.970608, 0.316403, 0.719439
11.582230, -3.984655, 3.468052, 35, 0.970608, 0.316403, 0.719439
11.738774, -3.552830, 3.346485, 35, 0.970608, 0.316403, 0.719439
11.979637, -5.159951, 3.441410, 35, 0.970608, 0.316403, 0.719439
12.596554, -4.873452, 3.417151, 35, 0.970608, 0.316403, 0.719439
13.383421, -4.615557, 3.436176, 35, 0.970608, 0.316403, 0.719439
22.517466, -6.842551, 5.472241, 35, 0.970608, 0.316403, 0.719439
20.667619, -8.894831, 5.044696, 35, 0.970608, 0.316403, 0.719439
21.814821, -8.445579, 4.999997, 35, 0.970608, 0.316403, 0.719439
22.531675, -7.779769, 4.853153, 35, 0.970608, 0.316403, 0.719439
22.589845, -6.881344, 4.576119, 35, 0.970608, 0.316403, 0.719439
20.629113, -8.878258, 4.168112, 35, 0.970608, 0.316403, 0.719439
21.738213, -8.419410, 4.091191, 35, 0.970608, 0.316403, 0.719439
22.543788, -7.790557, 3.951230, 35, 0.970608, 0.316403, 0.719439
22.646846, -6.917286, 3.693325, 35, 0.970608, 0.316403, 0.719439
20.633025, -8.878662, 3.318137, 35, 0.970608, 0.316403, 0.719439
21.798057, -8.450901, 3.222883, 35, 0.970608, 0.316403, 0.719439
16.787749, -7.254567, -0.657812, 35, 0.970608, 0.316403, 0.719439
10.990857, -4.778419, 3.663165, 35, 0.970608, 0.316403, 0.719439
11.608691, -4.532255, 3.662113, 35, 0.970608, 0.316403, 0.719439
11.579039, -4.023328, 3.470776, 35, 0.970608, 0.316403, 0.719439
11.718593, -3.586005, 3.343852, 35, 0.970608, 0.316403, 0.719439
11.955768, -5.193213, 3.439115, 35, 0.970608, 0.316403, 0.719439
12.585155, -4.913485, 3.418132, 35, 0.970608, 0.316403, 0.719439
13.333406, -4.644129, 3.426977, 35, 0.970608, 0.316403, 0.719439
22.528025, -6.921326, 5.479942, 35, 0.970608, 0.316403, 0.719439
20.390499, -8.849808, 4.983658, 35, 0.970608, 0.316403, 0.719439
21.740533, -8.493605, 4.988919, 35, 0.970608, 0.316403, 0.719439
22.532683, -7.857571, 4.858539, 35, 0.970608, 0.316403, 0.719439
22.593960, -6.958419, 4.581256, 35, 0.970608, 0.316403, 0.719439
20.554878, -8.921150, 4.158623, 35, 0.970608, 0.316403, 0.719439
21.635222, -8.455945, 4.076671, 35, 0.970608, 0.316403, 0.719439
22.537476, -7.865861, 3.954335, 35, 0.970608, 0.316403, 0.719439
22.636848, -6.990231, 3.695174, 35, 0.970608, 0.316403, 0.719439
20.485900, -8.889938, 3.298848, 35, 0.970608, 0.316403, 0.719439
21.731436, -8.501857, 3.216874, 35, 0.970608, 0.316403, 0.719439
10.948994, -4.800213, 3.654104, 35, 0.970608, 0.316403, 0.719439
11.617941, -4.576992, 3.669444, 35, 0.970608, 0.316403, 0.719439
11.582984, -4.064567, 3.475680, 35, 0.970608, 0.316403, 0.719439
11.694634, -3.617948, 3.340167, 35, 0.970608, 0.316403, 0.719439
11.940665, -5.230256, 3.439370, 35, 0.970608, 0.316403, 0.719439
12.576335, -4.954561, 3.419849, 35, 0.970608, 0.316403, 0.719439
13.320929, -4.685659, 3.427449, 35, 0.970608, 0.316403, 0.719439
22.506684, -6.990409, 5.479942, 35, 0.970608, 0.316403, 0.719439
20.368616, -8.914670, 4.984971, 35, 0.970608, 0.316403, 0.719439
21.467825, -8.463070, 4.932274, 35, 0.970608, 0.316403, 0.719439
22.513091, -7.928290, 4.859537, 35, 0.970608, 0.316403, 0.719439
22.595004, -7.034707, 4.585822, 35, 0.970608, 0.316403, 0.719439
20.506696, -8.975103, 4.154426, 35, 0.970608, 0.316403, 0.719439
21.587187, -8.513608, 4.072522, 35, 0.970608, 0.316403, 0.719439
22.554179, -7.949398, 3.961526, 35, 0.970608, 0.316403, 0.719439
22.563420, -7.043454, 3.686698, 35, 0.970608, 0.316403, 0.719439
20.431341, -8.940848, 3.294464, 35, 0.970608, 0.316403, 0.719439
21.680372, -8.558667, 3.213187, 35, 0.970608, 0.316403, 0.719439
10.919347, -4.827208, 3.649135, 35, 0.970608, 0.316403, 0.719439
11.606519, -4.613677, 3.670290, 35, 0.970608, 0.316403, 0.719439
11.562297, -4.097192, 3.473228, 35, 0.970608, 0.316403, 0.719439
11.688082, -3.655250, 3.341483, 35, 0.970608, 0.316403, 0.719439
11.916602, -5.263349, 3.437074, 35, 0.970608, 0.316403, 0.719439
12.568283, -4.995986, 3.421811, 35, 0.970608, 0.316403, 0.719439
13.320228, -4.731384, 3.430987, 35, 0.970608, 0.316403, 0.719439
22.523233, -7.071388, 5.489227, 35, 0.970608, 0.316403, 0.719439
20.291179, -8.955055, 4.972720, 35, 0.970608, 0.316403, 0.719439
21.381788, -8.505038, 4.918479, 35, 0.970608, 0.316403, 0.719439
22.505280, -8.003232, 4.863128, 35, 0.970608, 0.316403, 0.719439
22.563013, -7.100753, 4.583729, 35, 0.970608, 0.316403, 0.719439
20.447580, -9.024080, 4.148039, 35, 0.970608, 0.316403, 0.719439
21.500566, -8.555762, 4.061113, 35, 0.970608, 0.316403, 0.719439
22.544555, -8.023848, 3.964140, 35, 0.970608, 0.316403, 0.719439
22.557723, -7.117699, 3.689318, 35, 0.970608, 0.316403, 0.719439
20.411054, -9.006683, 3.295633, 35, 0.970608, 0.316403, 0.719439
21.586830, -8.598381, 3.203218, 35, 0.970608, 0.316403, 0.719439
10.900992, -4.859128, 3.647966, 35, 0.970608, 0.316403, 0.719439
11.614572, -4.658192, 3.677338, 35, 0.970608, 0.316403, 0.719439
11.574133, -4.141397, 3.480583, 35, 0.970608, 0.316403, 0.719439
11.638179, -3.678878, 3.330427, 35, 0.970608, 0.316403, 0.719439
11.888032, -5.294377, 3.433502, 35, 0.970608, 0.316403, 0.719439
12.543899, -5.030912, 3.419359, 35, 0.970608, 0.316403, 0.719439
13.339494, -4.784366, 3.439714, 35, 0.970608, 0.316403, 0.719439
22.588702, -7.168148, 5.510517, 35, 0.970608, 0.316403, 0.719439
19.715342, -8.773288, 4.838174, 35, 0.970608, 0.316403, 0.719439
21.360133, -8.572417, 4.919524, 35, 0.970608, 0.316403, 0.719439
22.506445, -8.081512, 4.868714, 35, 0.970608, 0.316403, 0.719439
22.604739, -7.190177, 4.596666, 35, 0.970608, 0.316403, 0.719439
19.791000, -8.806955, 4.020306, 35, 0.970608, 0.316403, 0.719439
21.466903, -8.618748, 4.059730, 35, 0.970608, 0.316403, 0.719439
22.534687, -8.098315, 3.966755, 35, 0.970608, 0.316403, 0.719439
22.628032, -7.216291, 3.704420, 35, 0.970608, 0.316403, 0.719439
20.229674, -9.000896, 3.270790, 35, 0.970608, 0.316403, 0.719439
21.465673, -8.626520, 3.189152, 35, 0.970608, 0.316403, 0.719439
16.688337, -7.455956, -0.657453, 35, 0.970608, 0.316403, 0.719439
10.891266, -4.894901, 3.649719, 35, 0.970608, 0.316403, 0.719439
11.616235, -4.700281, 3.682413, 35, 0.970608, 0.316403, 0.719439
11.573136, -4.181137, 3.484125, 35, 0.970608, 0.316403, 0.719439
11.648893, -3.721613, 3.336745, 35, 0.970608, 0.316403, 0.719439
11.829394, -5.311812, 3.421257, 35, 0.970608, 0.316403, 0.719439
12.527506, -5.069009, 3.419113, 35, 0.970608, 0.316403, 0.719439
13.327494, -4.826262, 3.440422, 35, 0.970608, 0.316403, 0.719439
13.870517, -4.448463, 3.387028, 35, 0.970608, 0.316403, 0.719439
19.752432, -8.862492, 4.853926, 35, 0.970608, 0.316403, 0.719439
21.258498, -8.607447, 4.902175, 35, 0.970608, 0.316403, 0.719439
22.445616, -8.137497, 4.860933, 35, 0.970608, 0.316403, 0.719439
22.595658, -7.263700, 4.599329, 35, 0.970608, 0.316403, 0.719439
19.764785, -8.868034, 4.020489, 35, 0.970608, 0.316403, 0.719439
21.322597, -8.636866, 4.037432, 35, 0.970608, 0.316403, 0.719439
22.523647, -8.172459, 3.969207, 35, 0.970608, 0.316403, 0.719439
22.600144, -7.283861, 3.703496, 35, 0.970608, 0.316403, 0.719439
19.777744, -8.872605, 3.202106, 35, 0.970608, 0.316403, 0.719439
21.458384, -8.700152, 3.192019, 35, 0.970608, 0.316403, 0.719439
16.690896, -7.518613, -0.658460, 35, 0.970608, 0.316403, 0.719439
10.897104, -4.937764, 3.656735, 35, 0.970608, 0.316403, 0.719439
11.620414, -4.743512, 3.688334, 35, 0.970608, 0.316403, 0.719439
11.562966, -4.217612, 3.484942, 35, 0.970608, 0.316403, 0.719439
11.630076, -3.754962, 3.334639, 35, 0.970608, 0.316403, 0.719439
11.790140, -5.337711, 3.414624, 35, 0.970608, 0.316403, 0.719439
12.505612, -5.104855, 3.417396, 35, 0.970608, 0.316403, 0.719439
13.312625, -4.867127, 3.440422, 35, 0.970608, 0.316403, 0.719439
19.729595, -8.925062, 4.855019, 35, 0.970608, 0.316403, 0.719439
21.098912, -8.618268, 4.871449, 35, 0.970608, 0.316403, 0.719439
22.426065, -8.208342, 4.862130, 35, 0.970608, 0.316403, 0.719439
22.587273, -7.337538, 4.602183, 35, 0.970608, 0.316403, 0.719439
19.881711, -8.993874, 4.049867, 35, 0.970608, 0.316403, 0.719439
21.207558, -8.666102, 4.020665, 35, 0.970608, 0.316403, 0.719439
22.377116, -8.197069, 3.947798, 35, 0.970608, 0.316403, 0.719439
22.632181, -7.370909, 3.712434, 35, 0.970608, 0.316403, 0.719439
20.090240, -9.086938, 3.257199, 35, 0.970608, 0.316403, 0.719439
21.283970, -8.705564, 3.170033, 35, 0.970608, 0.316403, 0.719439
16.646823, -7.560280, -0.657633, 35, 0.970608, 0.316403, 0.719439
10.876685, -4.968789, 3.654981, 35, 0.970608, 0.316403, 0.719439
11.621775, -4.785716, 3.693409, 35, 0.970608, 0.316403, 0.719439
11.559001, -4.256392, 3.487667, 35, 0.970608, 0.316403, 0.719439
11.625838, -3.793019, 3.336745, 35, 0.970608, 0.316403, 0.719439
11.740284, -5.358601, 3.404930, 35, 0.970608, 0.316403, 0.719439
12.521267, -5.156117, 3.425981, 35, 0.970608, 0.316403, 0.719439
13.295806, -4.907274, 3.439950, 35, 0.970608, 0.316403, 0.719439
13.879986, -4.545613, 3.396087, 35, 0.970608, 0.316403, 0.719439
19.680813, -8.975832, 4.849769, 35, 0.970608, 0.316403, 0.719439
21.048864, -8.673271, 4.866014, 35, 0.970608, 0.316403, 0.719439
22.287721, -8.235331, 4.837591, 35, 0.970608, 0.316403, 0.719439
22.571186, -7.408944, 4.603514, 35, 0.970608, 0.316403, 0.719439
19.702843, -8.985878, 4.019029, 35, 0.970608, 0.316403, 0.719439
21.169034, -8.726245, 4.018418, 35, 0.970608, 0.316403, 0.719439
22.361115, -8.269104, 3.949432, 35, 0.970608, 0.316403, 0.719439
22.651695, -7.454207, 3.719369, 35, 0.970608, 0.316403, 0.719439
20.000159, -9.120210, 3.247116, 35, 0.970608, 0.316403, 0.719439
21.074930, -8.695632, 3.142857, 35, 0.970608, 0.316403, 0.719439
16.637180, -7.617556, -0.658172, 35, 0.970608, 0.316403, 0.719439
10.864864, -5.003735, 3.656150, 35, 0.970608, 0.316403, 0.719439
11.628303, -4.830182, 3.700175, 35, 0.970608, 0.316403, 0.719439
11.564828, -4.298875, 3.493388, 35, 0.970608, 0.316403, 0.719439
11.626058, -3.832595, 3.340167, 35, 0.970608, 0.316403, 0.719439
