x,y,z,C,R,G,B
7.074967, -4.889964, -0.623878, 26, 0.910972, 0.292734, 0.875613
6.545148, -4.179657, -0.637787, 26, 0.910972, 0.292734, 0.875613
6.121901, -3.604614, -0.650417, 26, 0.910972, 0.292734, 0.875613
5.506355, -2.977628, -0.634863, 26, 0.910972, 0.292734, 0.875613
5.238813, -3.349697, -0.739601, 26, 0.910972, 0.292734, 0.875613
5.157940, -3.039089, -0.769992, 26, 0.910972, 0.292734, 0.875613
4.936866, -2.671675, -0.777429, 26, 0.910972, 0.292734, 0.875613
4.698204, -3.258972, 1.747691, 26, 0.910972, 0.292734, 0.875613
5.361075, -3.425470, 1.869542, 26, 0.910972, 0.292734, 0.875613
5.366310, -3.149733, 1.761814, 26, 0.910972, 0.292734, 0.875613
4.941897, -2.657003, 1.530965, 26, 0.910972, 0.292734, 0.875613
5.181224, -3.591481, 1.663306, 26, 0.910972, 0.292734, 0.875613
5.399919, -3.450289, 1.621258, 26, 0.910972, 0.292734, 0.875613
6.342352, -3.729020, 1.785783, 26, 0.910972, 0.292734, 0.875613
4.844128, -2.611417, 1.279619, 26, 0.910972, 0.292734, 0.875613
5.630850, -3.900676, 1.535789, 26, 0.910972, 0.292734, 0.875613
6.222387, -3.977795, 1.578528, 26, 0.910972, 0.292734, 0.875613
5.031697, -2.960895, 1.188649, 26, 0.910972, 0.292734, 0.875613
5.045732, -2.724533, 1.111213, 26, 0.910972, 0.292734, 0.875613
11.748387, -8.138496, 2.652468, 26, 0.910972, 0.292734, 0.875613
5.098247, -3.260167, 1.062036, 26, 0.910972, 0.292734, 0.875613
5.030250, -2.961817, 0.967011, 26, 0.910972, 0.292734, 0.875613
5.414202, -2.928746, 0.960086, 26, 0.910972, 0.292734, 0.875613
11.293670, -7.227221, 1.848378, 26, 0.910972, 0.292734, 0.875613
10.873116, -6.409772, 1.617338, 26, 0.910972, 0.292734, 0.875613
5.428650, -2.940236, 0.732023, 26, 0.910972, 0.292734, 0.875613
11.714404, -8.114047, 1.576245, 26, 0.910972, 0.292734, 0.875613
11.427197, -7.317731, 1.365654, 26, 0.910972, 0.292734, 0.875613
11.349157, -6.696008, 1.202470, 26, 0.910972, 0.292734, 0.875613
5.426019, -2.942242, 0.504752, 26, 0.910972, 0.292734, 0.875613
11.761833, -8.154495, 1.055788, 26, 0.910972, 0.292734, 0.875613
11.401902, -6.732494, 0.724072, 26, 0.910972, 0.292734, 0.875613
5.447569, -2.957619, 0.280179, 26, 0.910972, 0.292734, 0.875613
9.171281, -6.362729, 0.414960, 26, 0.910972, 0.292734, 0.875613
11.400789, -7.311487, 0.373583, 26, 0.910972, 0.292734, 0.875613
8.041876, -4.753040, 0.168764, 26, 0.910972, 0.292734, 0.875613
5.440314, -2.954418, 0.053702, 26, 0.910972, 0.292734, 0.875613
8.620820, -5.985519, 0.007144, 26, 0.910972, 0.292734, 0.875613
11.470464, -7.359561, -0.122264, 26, 0.910972, 0.292734, 0.875613
8.056373, -4.765783, -0.170905, 26, 0.910972, 0.292734, 0.875613
5.470845, -2.975327, -0.173734, 26, 0.910972, 0.292734, 0.875613
8.698092, -6.044572, -0.380992, 26, 0.910972, 0.292734, 0.875613
8.108777, -5.207866, -0.436439, 26, 0.910972, 0.292734, 0.875613
8.077770, -4.783391, -0.516150, 26, 0.910972, 0.292734, 0.875613
5.493054, -2.989767, -0.403660, 26, 0.910972, 0.292734, 0.875613
7.050925, -4.905382, -0.623082, 26, 0.910972, 0.292734, 0.875613
6.542354, -4.206186, -0.638769, 26, 0.910972, 0.292734, 0.875613
6.111670, -3.623886, -0.650508, 26, 0.910972, 0.292734, 0.875613
5.503309, -2.997839, -0.635569, 26, 0.910972, 0.292734, 0.875613
5.226007, -3.364141, -0.739246, 26, 0.910972, 0.292734, 0.875613
5.145180, -3.052874, -0.769482, 26, 0.910972, 0.292734, 0.875613
4.923428, -2.683964, -0.776606, 26, 0.910972, 0.292734, 0.875613
5.368005, -3.748033, 2.001120, 26, 0.910972, 0.292734, 0.875613
5.380396, -3.461107, 1.879973, 26, 0.910972, 0.292734, 0.875613
5.369874, -3.174015, 1.766173, 26, 0.910972, 0.292734, 0.875613
5.070298, -2.746123, 1.573345, 26, 0.910972, 0.292734, 0.875613
5.167009, -3.605146, 1.662285, 26, 0.910972, 0.292734, 0.875613
5.704025, -3.669291, 1.715934, 26, 0.910972, 0.292734, 0.875613
6.338408, -3.752916, 1.787906, 26, 0.910972, 0.292734, 0.875613
4.853212, -2.635563, 1.284149, 26, 0.910972, 0.292734, 0.875613
5.309100, -3.701944, 1.451124, 26, 0.910972, 0.292734, 0.875613
6.169038, -3.970404, 1.568077, 26, 0.910972, 0.292734, 0.875613
5.004886, -2.965828, 1.184460, 26, 0.910972, 0.292734, 0.875613
5.207244, -2.832413, 1.148691, 26, 0.910972, 0.292734, 0.875613
5.351970, -3.731838, 1.210909, 26, 0.910972, 0.292734, 0.875613
5.090705, -3.277393, 1.062555, 26, 0.910972, 0.292734, 0.875613
5.122971, -3.037616, 0.986622, 26, 0.910972, 0.292734, 0.875613
5.406059, -2.945815, 0.960240, 26, 0.910972, 0.292734, 0.875613
11.436331, -7.368068, 1.875417, 26, 0.910972, 0.292734, 0.875613
10.815019, -6.420316, 1.611618, 26, 0.910972, 0.292734, 0.875613
5.415245, -2.954499, 0.731434, 26, 0.910972, 0.292734, 0.875613
11.707393, -8.162454, 1.578664, 26, 0.910972, 0.292734, 0.875613
11.416400, -7.360303, 1.367056, 26, 0.910972, 0.292734, 0.875613
11.302876, -6.715535, 1.199744, 26, 0.910972, 0.292734, 0.875613
5.424839, -2.963175, 0.505486, 26, 0.910972, 0.292734, 0.875613
11.752299, -8.201385, 1.057185, 26, 0.910972, 0.292734, 0.875613
8.124169, -5.239365, 0.620400, 26, 0.910972, 0.292734, 0.875613
11.434404, -6.799083, 0.727458, 26, 0.910972, 0.292734, 0.875613
5.436717, -2.973360, 0.280089, 26, 0.910972, 0.292734, 0.875613
11.784986, -8.229704, 0.534359, 26, 0.910972, 0.292734, 0.875613
11.404337, -7.363238, 0.374437, 26, 0.910972, 0.292734, 0.875613
8.043581, -4.787406, 0.169107, 26, 0.910972, 0.292734, 0.875613
5.428592, -2.969655, 0.053676, 26, 0.910972, 0.292734, 0.875613
8.603236, -6.012512, 0.007144, 26, 0.910972, 0.292734, 0.875613
11.515028, -7.438123, -0.122982, 26, 0.910972, 0.292734, 0.875613
8.042573, -4.790989, -0.170923, 26, 0.910972, 0.292734, 0.875613
5.462568, -2.992578, -0.173762, 26, 0.910972, 0.292734, 0.875613
8.669680, -6.064354, -0.380561, 26, 0.910972, 0.292734, 0.875613
8.078500, -5.223498, -0.435670, 26, 0.910972, 0.292734, 0.875613
8.066487, -4.810196, -0.516370, 26, 0.910972, 0.292734, 0.875613
5.489106, -3.009483, -0.404046, 26, 0.910972, 0.292734, 0.875613
7.030124, -4.922985, -0.622576, 26, 0.910972, 0.292734, 0.875613
6.538622, -4.232195, -0.639670, 26, 0.910972, 0.292734, 0.875613
6.123609, -3.656404, -0.652970, 26, 0.910972, 0.292734, 0.875613
5.496703, -3.016145, -0.635872, 26, 0.910972, 0.292734, 0.875613
5.218995, -3.382319, -0.739719, 26, 0.910972, 0.292734, 0.875613
5.136641, -3.069154, -0.769610, 26, 0.910972, 0.292734, 0.875613
4.915171, -2.699056, -0.776606, 26, 0.910972, 0.292734, 0.875613
5.354134, -3.762835, 2.000243, 26, 0.910972, 0.292734, 0.875613
5.397133, -3.495329, 1.889559, 26, 0.910972, 0.292734, 0.875613
5.367552, -3.194904, 1.768625, 26, 0.910972, 0.292734, 0.875613
5.317609, -2.901204, 1.652842, 26, 0.910972, 0.292734, 0.875613
6.376065, -4.477880, 2.055662, 26, 0.910972, 0.292734, 0.875613
5.706573, -3.695732, 1.720103, 26, 0.910972, 0.292734, 0.875613
6.511328, -3.882330, 1.840034, 26, 0.910972, 0.292734, 0.875613
4.844249, -2.649972, 1.283923, 26, 0.910972, 0.292734, 0.875613
5.295321, -3.716533, 1.450468, 26, 0.910972, 0.292734, 0.875613
6.120717, -3.965914, 1.558880, 26, 0.910972, 0.292734, 0.875613
4.978093, -2.970624, 1.180270, 26, 0.910972, 0.292734, 0.875613
5.344034, -2.928099, 1.180842, 26, 0.910972, 0.292734, 0.875613
5.058019, -3.549983, 1.146860, 26, 0.910972, 0.292734, 0.875613
5.080627, -3.292995, 1.062555, 26, 0.910972, 0.292734, 0.875613
5.133957, -3.065457, 0.990545, 26, 0.910972, 0.292734, 0.875613
5.401327, -2.964764, 0.961010, 26, 0.910972, 0.292734, 0.875613
11.765233, -7.631148, 1.933183, 26, 0.910972, 0.292734, 0.875613
10.699066, -6.395954, 1.597256, 26, 0.910972, 0.292734, 0.875613
5.390490, -2.962490, 0.729315, 26, 0.910972, 0.292734, 0.875613
11.681482, -8.197762, 1.578554, 26, 0.910972, 0.292734, 0.875613
11.429653, -7.418587, 1.371362, 26, 0.910972, 0.292734, 0.875613
5.415723, -2.979804, 0.505486, 26, 0.910972, 0.292734, 0.875613
11.752381, -8.255173, 1.059466, 26, 0.910972, 0.292734, 0.875613
9.590391, -6.226690, 0.733823, 26, 0.910972, 0.292734, 0.875613
11.392074, -6.821307, 0.726093, 26, 0.910972, 0.292734, 0.875613
5.436319, -2.994846, 0.280540, 26, 0.910972, 0.292734, 0.875613
11.779304, -8.279612, 0.535250, 26, 0.910972, 0.292734, 0.875613
11.501546, -7.476096, 0.378380, 26, 0.910972, 0.292734, 0.875613
8.046007, -4.822341, 0.169469, 26, 0.910972, 0.292734, 0.875613
5.416829, -2.984848, 0.053650, 26, 0.910972, 0.292734, 0.875613
8.581478, -6.036577, 0.007142, 26, 0.910972, 0.292734, 0.875613
11.782204, -7.662037, -0.126086, 26, 0.910972, 0.292734, 0.875613
8.000399, -4.799182, -0.170339, 26, 0.910972, 0.292734, 0.875613
5.448985, -3.006908, -0.173623, 26, 0.910972, 0.292734, 0.875613
8.660839, -6.097828, -0.380992, 26, 0.910972, 0.292734, 0.875613
8.069134, -5.252617, -0.436032, 26, 0.910972, 0.292734, 0.875613
8.060252, -4.840061, -0.516919, 26, 0.910972, 0.292734, 0.875613
5.479847, -3.026310, -0.404046, 26, 0.910972, 0.292734, 0.875613
6.543142, -4.263661, -0.641389, 26, 0.910972, 0.292734, 0.875613
6.110655, -3.674147, -0.652787, 26, 0.910972, 0.292734, 0.875613
5.500485, -3.040213, -0.637385, 26, 0.910972, 0.292734, 0.875613
5.127201, -3.084899, -0.769610, 26, 0.910972, 0.292734, 0.875613
4.905133, -2.713164, -0.776331, 26, 0.910972, 0.292734, 0.875613
6.365327, -4.502729, 2.383162, 26, 0.910972, 0.292734, 0.875613
5.995587, -3.909066, 2.103269, 26, 0.910972, 0.292734, 0.875613
5.382484, -3.226196, 1.776798, 26, 0.910972, 0.292734, 0.875613
5.370403, -2.951424, 1.672058, 26, 0.910972, 0.292734, 0.875613
5.868184, -3.826000, 1.772347, 26, 0.910972, 0.292734, 0.875613
4.850599, -2.672813, 1.287773, 26, 0.910972, 0.292734, 0.875613
5.207385, -3.678713, 1.429465, 26, 0.910972, 0.292734, 0.875613
6.047092, -3.944602, 1.543204, 26, 0.910972, 0.292734, 0.875613
4.953838, -2.976798, 1.176679, 26, 0.910972, 0.292734, 0.875613
5.283454, -2.916018, 1.169427, 26, 0.910972, 0.292734, 0.875613
5.598792, -3.955219, 1.272221, 26, 0.910972, 0.292734, 0.875613
5.091122, -3.322023, 1.066876, 26, 0.910972, 0.292734, 0.875613
5.133829, -3.086785, 0.992343, 26, 0.910972, 0.292734, 0.875613
9.254774, -5.116915, 1.649406, 26, 0.910972, 0.292734, 0.875613
11.761673, -7.680206, 1.936461, 26, 0.910972, 0.292734, 0.875613
10.954728, -6.594493, 1.638436, 26, 0.910972, 0.292734, 0.875613
11.381342, -6.300465, 1.542464, 26, 0.910972, 0.292734, 0.875613
11.696868, -8.262235, 1.584051, 26, 0.910972, 0.292734, 0.875613
11.606740, -7.584239, 1.395395, 26, 0.910972, 0.292734, 0.875613
9.560415, -5.298545, 0.893850, 26, 0.910972, 0.292734, 0.875613
11.716412, -8.283705, 1.058510, 26, 0.910972, 0.292734, 0.875613
9.570407, -6.255537, 0.733759, 26, 0.910972, 0.292734, 0.875613
11.419834, -6.885614, 0.729205, 26, 0.910972, 0.292734, 0.875613
5.414003, -3.004239, 0.279863, 26, 0.910972, 0.292734, 0.875613
11.753031, -8.315135, 0.535213, 26, 0.910972, 0.292734, 0.875613
11.742872, -7.684311, 0.387093, 26, 0.910972, 0.292734, 0.875613
8.048295, -4.857336, 0.169830, 26, 0.910972, 0.292734, 0.875613
5.404148, -2.999511, 0.053615, 26, 0.910972, 0.292734, 0.875613
8.559652, -6.060564, 0.007139, 26, 0.910972, 0.292734, 0.875613
11.798799, -7.724438, -0.126516, 26, 0.910972, 0.292734, 0.875613
8.002755, -4.834044, -0.170704, 26, 0.910972, 0.292734, 0.875613
5.424881, -3.015355, -0.173149, 26, 0.910972, 0.292734, 0.875613
8.640460, -6.123215, -0.380920, 26, 0.910972, 0.292734, 0.875613
8.054652, -5.278444, -0.436123, 26, 0.910972, 0.292734, 0.875613
8.048782, -4.866833, -0.517138, 26, 0.910972, 0.292734, 0.875613
5.460072, -3.037286, -0.403273, 26, 0.910972, 0.292734, 0.875613
6.538364, -4.289182, -0.642207, 26, 0.910972, 0.292734, 0.875613
6.119799, -3.705256, -0.654975, 26, 0.910972, 0.292734, 0.875613
5.533726, -3.080787, -0.642330, 26, 0.910972, 0.292734, 0.875613
5.117713, -3.100614, -0.769610, 26, 0.910972, 0.292734, 0.875613
4.904574, -2.732539, -0.777566, 26, 0.910972, 0.292734, 0.875613
6.029285, -3.957450, 2.119340, 26, 0.910972, 0.292734, 0.875613
5.425281, -3.274515, 1.794233, 26, 0.910972, 0.292734, 0.875613
5.596809, -3.098245, 1.745500, 26, 0.910972, 0.292734, 0.875613
6.261018, -4.454698, 2.027345, 26, 0.910972, 0.292734, 0.875613
6.320815, -4.148802, 1.912888, 26, 0.910972, 0.292734, 0.875613
5.256602, -3.178091, 1.490944, 26, 0.910972, 0.292734, 0.875613
4.823640, -2.677283, 1.282790, 26, 0.910972, 0.292734, 0.875613
5.145179, -3.658482, 1.415464, 26, 0.910972, 0.292734, 0.875613
6.062754, -3.981387, 1.550310, 26, 0.910972, 0.292734, 0.875613
4.930429, -2.983358, 1.173288, 26, 0.910972, 0.292734, 0.875613
5.056536, -2.811052, 1.121105, 26, 0.910972, 0.292734, 0.875613
4.858254, -3.454464, 1.106351, 26, 0.910972, 0.292734, 0.875613
5.170637, -3.396571, 1.085718, 26, 0.910972, 0.292734, 0.875613
5.109144, -3.093324, 0.989401, 26, 0.910972, 0.292734, 0.875613
9.221768, -5.135669, 1.646323, 26, 0.910972, 0.292734, 0.875613
11.720596, -8.333012, 2.124362, 26, 0.910972, 0.292734, 0.875613
11.748816, -7.723328, 1.938236, 26, 0.910972, 0.292734, 0.875613
10.590915, -6.419835, 1.586961, 26, 0.910972, 0.292734, 0.875613
11.406192, -6.360018, 1.548470, 26, 0.910972, 0.292734, 0.875613
11.675515, -8.300961, 1.584601, 26, 0.910972, 0.292734, 0.875613
11.734704, -7.719332, 1.413619, 26, 0.910972, 0.292734, 0.875613
9.625919, -5.373517, 0.901512, 26, 0.910972, 0.292734, 0.875613
11.751072, -8.362401, 1.063954, 26, 0.910972, 0.292734, 0.875613
9.582849, -6.305715, 0.736193, 26, 0.910972, 0.292734, 0.875613
11.418286, -6.932536, 0.730461, 26, 0.910972, 0.292734, 0.875613
11.744559, -8.363326, 0.535993, 26, 0.910972, 0.292734, 0.875613
11.744285, -7.736799, 0.387920, 26, 0.910972, 0.292734, 0.875613
8.049590, -4.891870, 0.170173, 26, 0.910972, 0.292734, 0.875613
8.087580, -4.521432, 0.080375, 26, 0.910972, 0.292734, 0.875613
8.543462, -6.088538, 0.007141, 26, 0.910972, 0.292734, 0.875613
11.841005, -7.804072, -0.127225, 26, 0.910972, 0.292734, 0.875613
7.995575, -4.863249, -0.170868, 26, 0.910972, 0.292734, 0.875613
8.088082, -4.528199, -0.258594, 26, 0.910972, 0.292734, 0.875613
8.624888, -6.152016, -0.381064, 26, 0.910972, 0.292734, 0.875613
8.053431, -5.313032, -0.436937, 26, 0.910972, 0.292734, 0.875613
8.061105, -4.908120, -0.518895, 26, 0.910972, 0.292734, 0.875613
7.868340, -4.408602, -0.582141, 26, 0.910972, 0.292734, 0.875613
6.525174, -4.309221, -0.642207, 26, 0.910972, 0.292734, 0.875613
6.109253, -3.724532, -0.655066, 26, 0.910972, 0.292734, 0.875613
6.013672, -3.372197, -0.699237, 26, 0.910972, 0.292734, 0.875613
5.119183, -3.123016, -0.771268, 26, 0.910972, 0.292734, 0.875613
4.905670, -2.752905, -0.779075, 26, 0.910972, 0.292734, 0.875613
5.744956, -3.796095, 2.023480, 26, 0.910972, 0.292734, 0.875613
5.491677, -3.337618, 1.819569, 26, 0.910972, 0.292734, 0.875613
5.636991, -3.143121, 1.761031, 26, 0.910972, 0.292734, 0.875613
6.243391, -4.471070, 2.026070, 26, 0.910972, 0.292734, 0.875613
5.804965, -3.835747, 1.760328, 26, 0.910972, 0.292734, 0.875613
5.279200, -3.213911, 1.500143, 26, 0.910972, 0.292734, 0.875613
4.804351, -2.685890, 1.279846, 26, 0.910972, 0.292734, 0.875613
5.223596, -3.738422, 1.440185, 26, 0.910972, 0.292734, 0.875613
6.046432, -3.997272, 1.549265, 26, 0.910972, 0.292734, 0.875613
4.913722, -2.993881, 1.171492, 26, 0.910972, 0.292734, 0.875613
5.045319, -2.825113, 1.120535, 26, 0.910972, 0.292734, 0.875613
4.833242, -3.459053, 1.103066, 26, 0.910972, 0.292734, 0.875613
5.226738, -3.456425, 1.099719, 26, 0.910972, 0.292734, 0.875613
5.124900, -3.124390, 0.994304, 26, 0.910972, 0.292734, 0.875613
11.656757, -6.538667, 2.084603, 26, 0.910972, 0.292734, 0.875613
11.704629, -8.375840, 2.126116, 26, 0.910972, 0.292734, 0.875613
11.738284, -7.768084, 1.940421, 26, 0.910972, 0.292734, 0.875613
11.313674, -6.905498, 1.698427, 26, 0.910972, 0.292734, 0.875613
11.391821, -6.397899, 1.549176, 26, 0.910972, 0.292734, 0.875613
11.685558, -8.362192, 1.589438, 26, 0.910972, 0.292734, 0.875613
11.737512, -7.772877, 1.416824, 26, 0.910972, 0.292734, 0.875613
9.529461, -5.358084, 0.894013, 26, 0.910972, 0.292734, 0.875613
11.735901, -8.405963, 1.064910, 26, 0.910972, 0.292734, 0.875613
9.554307, -6.329023, 0.735488, 26, 0.910972, 0.292734, 0.875613
11.411446, -6.976388, 0.731389, 26, 0.910972, 0.292734, 0.875613
9.433797, -5.310799, 0.489331, 26, 0.910972, 0.292734, 0.875613
11.739151, -8.413872, 0.536922, 26, 0.910972, 0.292734, 0.875613
11.750484, -7.792683, 0.388913, 26, 0.910972, 0.292734, 0.875613
8.043924, -4.922284, 0.170372, 26, 0.910972, 0.292734, 0.875613
8.082384, -4.551129, 0.080462, 26, 0.910972, 0.292734, 0.875613
8.542619, -6.127543, 0.007156, 26, 0.910972, 0.292734, 0.875613
11.782011, -7.817144, -0.126848, 26, 0.910972, 0.292734, 0.875613
7.991701, -4.894545, -0.171105, 26, 0.910972, 0.292734, 0.875613
8.075893, -4.553974, -0.258650, 26, 0.910972, 0.292734, 0.875613
8.598667, -6.173202, -0.380740, 26, 0.910972, 0.292734, 0.875613
8.053736, -5.348768, -0.437842, 26, 0.910972, 0.292734, 0.875613
8.053670, -4.937525, -0.519389, 26, 0.910972, 0.292734, 0.875613
7.866945, -4.439588, -0.583043, 26, 0.910972, 0.292734, 0.875613
6.521882, -4.335841, -0.643189, 26, 0.910972, 0.292734, 0.875613
6.108830, -3.750030, -0.656252, 26, 0.910972, 0.292734, 0.875613
6.007629, -3.393077, -0.699742, 26, 0.910972, 0.292734, 0.875613
5.119719, -3.144936, -0.772799, 26, 0.910972, 0.292734, 0.875613
4.907549, -2.773791, -0.780721, 26, 0.910972, 0.292734, 0.875613
6.149101, -4.435249, 2.317394, 26, 0.910972, 0.292734, 0.875613
6.000096, -3.991182, 2.117648, 26, 0.910972, 0.292734, 0.875613
5.548709, -3.395634, 1.841909, 26, 0.910972, 0.292734, 0.875613
5.618069, -3.155203, 1.758135, 26, 0.910972, 0.292734, 0.875613
6.228861, -4.489639, 2.025815, 26, 0.910972, 0.292734, 0.875613
5.820614, -3.871794, 1.768668, 26, 0.910972, 0.292734, 0.875613
5.280914, -3.237202, 1.503445, 26, 0.910972, 0.292734, 0.875613
5.138120, -2.893211, 1.371118, 26, 0.910972, 0.292734, 0.875613
5.239022, -3.773821, 1.447624, 26, 0.910972, 0.292734, 0.875613
6.045537, -4.023388, 1.552192, 26, 0.910972, 0.292734, 0.875613
4.902008, -3.007405, 1.170893, 26, 0.910972, 0.292734, 0.875613
4.927173, -2.778848, 1.096184, 26, 0.910972, 0.292734, 0.875613
4.808246, -3.463521, 1.099781, 26, 0.910972, 0.292734, 0.875613
5.240706, -3.488818, 1.104905, 26, 0.910972, 0.292734, 0.875613
5.138832, -3.154550, 0.998880, 26, 0.910972, 0.292734, 0.875613
7.304408, -4.126800, 1.308521, 26, 0.910972, 0.292734, 0.875613
11.647571, -8.389161, 2.120416, 26, 0.910972, 0.292734, 0.875613
11.742427, -7.822734, 1.945064, 26, 0.910972, 0.292734, 0.875613
11.392996, -7.001979, 1.713552, 26, 0.910972, 0.292734, 0.875613
11.408441, -6.453354, 1.554121, 26, 0.910972, 0.292734, 0.875613
11.676785, -8.410202, 1.591747, 26, 0.910972, 0.292734, 0.875613
11.717750, -7.811610, 1.417324, 26, 0.910972, 0.292734, 0.875613
8.420532, -5.179396, 0.902125, 26, 0.910972, 0.292734, 0.875613
9.635262, -5.456545, 0.905505, 26, 0.910972, 0.292734, 0.875613
11.726237, -8.453593, 1.066381, 26, 0.910972, 0.292734, 0.875613
9.525712, -6.352215, 0.734784, 26, 0.910972, 0.292734, 0.875613
11.404444, -7.020264, 0.732317, 26, 0.910972, 0.292734, 0.875613
9.413984, -5.337745, 0.489151, 26, 0.910972, 0.292734, 0.875613
11.731923, -8.463295, 0.537776, 26, 0.910972, 0.292734, 0.875613
11.741486, -7.838686, 0.389409, 26, 0.910972, 0.292734, 0.875613
8.045810, -4.957428, 0.170733, 26, 0.910972, 0.292734, 0.875613
8.074472, -4.579357, 0.080522, 26, 0.910972, 0.292734, 0.875613
8.544860, -6.168941, 0.007174, 26, 0.910972, 0.292734, 0.875613
11.793729, -7.877136, -0.127234, 26, 0.910972, 0.292734, 0.875613
8.008986, -4.938983, -0.171799, 26, 0.910972, 0.292734, 0.875613
8.066230, -4.581197, -0.258789, 26, 0.910972, 0.292734, 0.875613
8.578067, -6.198383, -0.380669, 26, 0.910972, 0.292734, 0.875613
8.050576, -5.382335, -0.438566, 26, 0.910972, 0.292734, 0.875613
8.080966, -4.988435, -0.522134, 26, 0.910972, 0.292734, 0.875613
7.875844, -4.476523, -0.584718, 26, 0.910972, 0.292734, 0.875613
6.511034, -4.357493, -0.643435, 26, 0.910972, 0.292734, 0.875613
6.087132, -3.762471, -0.655158, 26, 0.910972, 0.292734, 0.875613
6.002380, -3.414444, -0.700347, 26, 0.910972, 0.292734, 0.875613
5.116795, -3.164802, -0.773819, 26, 0.910972, 0.292734, 0.875613
4.901598, -2.790305, -0.781133, 26, 0.910972, 0.292734, 0.875613
6.136238, -4.454655, 2.317686, 26, 0.910972, 0.292734, 0.875613
5.485583, -3.673261, 1.940026, 26, 0.910972, 0.292734, 0.875613
5.560381, -3.426269, 1.849264, 26, 0.910972, 0.292734, 0.875613
5.636072, -3.188099, 1.766822, 26, 0.910972, 0.292734, 0.875613
6.217405, -4.510431, 2.026580, 26, 0.910972, 0.292734, 0.875613
5.255306, -3.519063, 1.600165, 26, 0.910972, 0.292734, 0.875613
5.283361, -3.261045, 1.506983, 26, 0.910972, 0.292734, 0.875613
4.909784, -2.784511, 1.312459, 26, 0.910972, 0.292734, 0.875613
5.312739, -3.851733, 1.471251, 26, 0.910972, 0.292734, 0.875613
6.059976, -4.059879, 1.559089, 26, 0.910972, 0.292734, 0.875613
4.887757, -3.019340, 1.169696, 26, 0.910972, 0.292734, 0.875613
5.055205, -2.871534, 1.126623, 26, 0.910972, 0.292734, 0.875613
4.771329, -3.459211, 1.093760, 26, 0.910972, 0.292734, 0.875613
6.370558, -4.269242, 1.345868, 26, 0.910972, 0.292734, 0.875613
5.125773, -3.168226, 0.998226, 26, 0.910972, 0.292734, 0.875613
7.332933, -4.172645, 1.315918, 26, 0.910972, 0.292734, 0.875613
5.624268, -4.077142, 1.026159, 26, 0.910972, 0.292734, 0.875613
11.717550, -7.858171, 1.944928, 26, 0.910972, 0.292734, 0.875613
11.424599, -7.069782, 1.721559, 26, 0.910972, 0.292734, 0.875613
11.344585, -6.463253, 1.548116, 26, 0.910972, 0.292734, 0.875613
11.652538, -8.447153, 1.591967, 26, 0.910972, 0.292734, 0.875613
11.716035, -7.862492, 1.420028, 26, 0.910972, 0.292734, 0.875613
9.608087, -5.480155, 0.904527, 26, 0.910972, 0.292734, 0.875613
11.713161, -8.498900, 1.067559, 26, 0.910972, 0.292734, 0.875613
9.490436, -6.370841, 0.733567, 26, 0.910972, 0.292734, 0.875613
11.406617, -7.069948, 0.733846, 26, 0.910972, 0.292734, 0.875613
9.410576, -5.374033, 0.489828, 26, 0.910972, 0.292734, 0.875613
11.701859, -8.496312, 0.537591, 26, 0.910972, 0.292734, 0.875613
11.754717, -7.899763, 0.390650, 26, 0.910972, 0.292734, 0.875613
8.038209, -4.986833, 0.170896, 26, 0.910972, 0.292734, 0.875613
8.063858, -4.606091, 0.080557, 26, 0.910972, 0.292734, 0.875613
8.525894, -6.195128, 0.007174, 26, 0.910972, 0.292734, 0.875613
11.789423, -7.926672, -0.127449, 26, 0.910972, 0.292734, 0.875613
8.013332, -4.975662, -0.172219, 26, 0.910972, 0.292734, 0.875613
8.066020, -4.613864, -0.259235, 26, 0.910972, 0.292734, 0.875613
8.563052, -6.227610, -0.380848, 26, 0.910972, 0.292734, 0.875613
8.041484, -5.412028, -0.438973, 26, 0.910972, 0.292734, 0.875613
8.046967, -5.001607, -0.520926, 26, 0.910972, 0.292734, 0.875613
7.862074, -4.500665, -0.584718, 26, 0.910972, 0.292734, 0.875613
6.513340, -4.388028, -0.644990, 26, 0.910972, 0.292734, 0.875613
6.084015, -3.786390, -0.656069, 26, 0.910972, 0.292734, 0.875613
6.001373, -3.438283, -0.701457, 26, 0.910972, 0.292734, 0.875613
5.102010, -3.177339, -0.773054, 26, 0.910972, 0.292734, 0.875613
4.904186, -2.811734, -0.782916, 26, 0.910972, 0.292734, 0.875613
5.338789, -3.900807, 2.020996, 26, 0.910972, 0.292734, 0.875613
6.020840, -4.058490, 2.133719, 26, 0.910972, 0.292734, 0.875613
5.550661, -3.443819, 1.849537, 26, 0.910972, 0.292734, 0.875613
5.641353, -3.213971, 1.771560, 26, 0.910972, 0.292734, 0.875613
5.281285, -3.856105, 1.725297, 26, 0.910972, 0.292734, 0.875613
5.227604, -3.523790, 1.595014, 26, 0.910972, 0.292734, 0.875613
5.287363, -3.285959, 1.510993, 26, 0.910972, 0.292734, 0.875613
4.506245, -2.573953, 1.206692, 26, 0.910972, 0.292734, 0.875613
5.290650, -3.860537, 1.468407, 26, 0.910972, 0.292734, 0.875613
6.065328, -4.090480, 1.563688, 26, 0.910972, 0.292734, 0.875613
4.866821, -3.027076, 1.166903, 26, 0.910972, 0.292734, 0.875613
5.067675, -2.899217, 1.131379, 26, 0.910972, 0.292734, 0.875613
4.722570, -3.446015, 1.085001, 26, 0.910972, 0.292734, 0.875613
6.262714, -4.224870, 1.325817, 26, 0.910972, 0.292734, 0.875613
5.099277, -3.173511, 0.994957, 26, 0.910972, 0.292734, 0.875613
7.249803, -4.154837, 1.303282, 26, 0.910972, 0.292734, 0.875613
11.601471, -8.464553, 2.121439, 26, 0.910972, 0.292734, 0.875613
11.763175, -7.941196, 1.956536, 26, 0.910972, 0.292734, 0.875613
11.435687, -7.125256, 1.726516, 26, 0.910972, 0.292734, 0.875613
11.691034, -7.897843, 1.419928, 26, 0.910972, 0.292734, 0.875613
10.185968, -6.351774, 1.095418, 26, 0.910972, 0.292734, 0.875613
9.600736, -5.515067, 0.905424, 26, 0.910972, 0.292734, 0.875613
8.888297, -6.490938, 0.811907, 26, 0.910972, 0.292734, 0.875613
9.465058, -6.396016, 0.733119, 26, 0.910972, 0.292734, 0.875613
11.408592, -7.119711, 0.735375, 26, 0.910972, 0.292734, 0.875613
11.474971, -6.599700, 0.598333, 26, 0.910972, 0.292734, 0.875613
11.676545, -8.532763, 0.537628, 26, 0.910972, 0.292734, 0.875613
11.770167, -7.962675, 0.391974, 26, 0.910972, 0.292734, 0.875613
8.027112, -5.014119, 0.170986, 26, 0.910972, 0.292734, 0.875613
8.060956, -4.637292, 0.080670, 26, 0.910972, 0.292734, 0.875613
8.530255, -6.238375, 0.007193, 26, 0.910972, 0.292734, 0.875613
9.692273, -6.559911, -0.104995, 26, 0.910972, 0.292734, 0.875613
8.027702, -5.018773, -0.172858, 26, 0.910972, 0.292734, 0.875613
8.076079, -4.652560, -0.260016, 26, 0.910972, 0.292734, 0.875613
8.547937, -6.256803, -0.381028, 26, 0.910972, 0.292734, 0.875613
8.038074, -5.445639, -0.439697, 26, 0.910972, 0.292734, 0.875613
8.059516, -5.043751, -0.522738, 26, 0.910972, 0.292734, 0.875613
7.847365, -4.524266, -0.584653, 26, 0.910972, 0.292734, 0.875613
6.504796, -4.411347, -0.645481, 26, 0.910972, 0.292734, 0.875613
6.069838, -3.803452, -0.655796, 26, 0.910972, 0.292734, 0.875613
6.006307, -3.465629, -0.703273, 26, 0.910972, 0.292734, 0.875613
5.067869, -3.177697, -0.769354, 26, 0.910972, 0.292734, 0.875613
4.897252, -2.827758, -0.783190, 26, 0.910972, 0.292734, 0.875613
5.327567, -3.917735, 2.021289, 26, 0.910972, 0.292734, 0.875613
5.429596, -3.684225, 1.928185, 26, 0.910972, 0.292734, 0.875613
5.549046, -3.466440, 1.852533, 26, 0.910972, 0.292734, 0.875613
5.632303, -3.231744, 1.771823, 26, 0.910972, 0.292734, 0.875613
5.204760, -3.824767, 1.704123, 26, 0.910972, 0.292734, 0.875613
5.515190, -3.742305, 1.686256, 26, 0.910972, 0.292734, 0.875613
5.398356, -3.377940, 1.545666, 26, 0.910972, 0.292734, 0.875613
4.500015, -2.588738, 1.207145, 26, 0.910972, 0.292734, 0.875613
6.043041, -4.102478, 1.561180, 26, 0.910972, 0.292734, 0.875613
4.833427, -3.026910, 1.161118, 26, 0.910972, 0.292734, 0.875613
5.041744, -2.904949, 1.127574, 26, 0.910972, 0.292734, 0.875613
4.700089, -3.451757, 1.082264, 26, 0.910972, 0.292734, 0.875613
11.773434, -7.995108, 2.497618, 26, 0.910972, 0.292734, 0.875613
11.446398, -7.172423, 2.237674, 26, 0.910972, 0.292734, 0.875613
11.490066, -6.631829, 2.069193, 26, 0.910972, 0.292734, 0.875613
11.768412, -8.641803, 2.156804, 26, 0.910972, 0.292734, 0.875613
11.742853, -7.980032, 1.957218, 26, 0.910972, 0.292734, 0.875613
11.430577, -7.170848, 1.729058, 26, 0.910972, 0.292734, 0.875613
11.669217, -7.935352, 1.420228, 26, 0.910972, 0.292734, 0.875613
10.145347, -6.369756, 1.093146, 26, 0.910972, 0.292734, 0.875613
9.626906, -5.569451, 0.909499, 26, 0.910972, 0.292734, 0.875613
9.454467, -6.431199, 0.733823, 26, 0.910972, 0.292734, 0.875613
11.403604, -7.165304, 0.736467, 26, 0.910972, 0.292734, 0.875613
11.456399, -6.635875, 0.598423, 26, 0.910972, 0.292734, 0.875613
11.748161, -8.000435, 0.392056, 26, 0.910972, 0.292734, 0.875613
8.016770, -5.041916, 0.171094, 26, 0.910972, 0.292734, 0.875613
8.063997, -4.672026, 0.080843, 26, 0.910972, 0.292734, 0.875613
8.536043, -6.282892, 0.007215, 26, 0.910972, 0.292734, 0.875613
9.659706, -6.581170, -0.104861, 26, 0.910972, 0.292734, 0.875613
8.024113, -5.050835, -0.173113, 26, 0.910972, 0.292734, 0.875613
8.073872, -4.684338, -0.260406, 26, 0.910972, 0.292734, 0.875613
8.511001, -6.269958, -0.380237, 26, 0.910972, 0.292734, 0.875613
8.027933, -5.474777, -0.440059, 26, 0.910972, 0.292734, 0.875613
8.062589, -5.080164, -0.523946, 26, 0.910972, 0.292734, 0.875613
7.874008, -4.571871, -0.587680, 26, 0.910972, 0.292734, 0.875613
6.496171, -4.434654, -0.645972, 26, 0.910972, 0.292734, 0.875613
6.055614, -3.820462, -0.655522, 26, 0.910972, 0.292734, 0.875613
6.011990, -3.493537, -0.705190, 26, 0.910972, 0.292734, 0.875613
5.001904, -3.157756, -0.760807, 26, 0.910972, 0.292734, 0.875613
4.893691, -2.845757, -0.784014, 26, 0.910972, 0.292734, 0.875613
5.317060, -3.935198, 2.021873, 26, 0.910972, 0.292734, 0.875613
5.437281, -3.713853, 1.934951, 26, 0.910972, 0.292734, 0.875613
5.684990, -3.575657, 1.901571, 26, 0.910972, 0.292734, 0.875613
4.868927, -2.813619, 1.534387, 26, 0.910972, 0.292734, 0.875613
5.163460, -3.818868, 1.694429, 26, 0.910972, 0.292734, 0.875613
5.177065, -3.536115, 1.586184, 26, 0.910972, 0.292734, 0.875613
5.742341, -3.617746, 1.647326, 26, 0.910972, 0.292734, 0.875613
5.550592, -3.215811, 1.491606, 26, 0.910972, 0.292734, 0.875613
5.170345, -3.821588, 1.441498, 26, 0.910972, 0.292734, 0.875613
5.735728, -3.919611, 1.484887, 26, 0.910972, 0.292734, 0.875613
4.818316, -3.038067, 1.159721, 26, 0.910972, 0.292734, 0.875613
5.047243, -2.928779, 1.130808, 26, 0.910972, 0.292734, 0.875613
4.684733, -3.462654, 1.081169, 26, 0.910972, 0.292734, 0.875613
11.747224, -8.030079, 2.497272, 26, 0.910972, 0.292734, 0.875613
4.921177, -3.104724, 0.963906, 26, 0.910972, 0.292734, 0.875613
11.449165, -6.655132, 2.065494, 26, 0.910972, 0.292734, 0.875613
11.757755, -8.689627, 2.159727, 26, 0.910972, 0.292734, 0.875613
11.741209, -8.031682, 1.961042, 26, 0.910972, 0.292734, 0.875613
11.437037, -7.223892, 1.733379, 26, 0.910972, 0.292734, 0.875613
11.702290, -8.010456, 1.427238, 26, 0.910972, 0.292734, 0.875613
10.075251, -6.368925, 1.087694, 26, 0.910972, 0.292734, 0.875613
9.598578, -5.592437, 0.908440, 26, 0.910972, 0.292734, 0.875613
8.845096, -6.542981, 0.811612, 26, 0.910972, 0.292734, 0.875613
9.429751, -6.456791, 0.733439, 26, 0.910972, 0.292734, 0.875613
9.165702, -5.346659, 0.479623, 26, 0.910972, 0.292734, 0.875613
12.179787, -9.015673, 0.563335, 26, 0.910972, 0.292734, 0.875613
9.255009, -6.344261, 0.309504, 26, 0.910972, 0.292734, 0.875613
7.998729, -5.064883, 0.171040, 26, 0.910972, 0.292734, 0.875613
8.072944, -4.710351, 0.081078, 26, 0.910972, 0.292734, 0.875613
8.537619, -6.324527, 0.007232, 26, 0.910972, 0.292734, 0.875613
9.628749, -6.603423, -0.104744, 26, 0.910972, 0.292734, 0.875613
8.627612, -5.467740, -0.186494, 26, 0.910972, 0.292734, 0.875613
8.082765, -4.722702, -0.261159, 26, 0.910972, 0.292734, 0.875613
8.028394, -5.511253, -0.441009, 26, 0.910972, 0.292734, 0.875613
8.062985, -5.115039, -0.524989, 26, 0.910972, 0.292734, 0.875613
7.861668, -4.597014, -0.587809, 26, 0.910972, 0.292734, 0.875613
6.484178, -4.455692, -0.646136, 26, 0.910972, 0.292734, 0.875613
6.052271, -3.844361, -0.656434, 26, 0.910972, 0.292734, 0.875613
6.000385, -3.511463, -0.705089, 26, 0.910972, 0.292734, 0.875613
4.989682, -3.171490, -0.760425, 26, 0.910972, 0.292734, 0.875613
5.403898, -4.025187, 2.059581, 26, 0.910972, 0.292734, 0.875613
5.429024, -3.732691, 1.936079, 26, 0.910972, 0.292734, 0.875613
6.768960, -4.286474, 2.268536, 26, 0.910972, 0.292734, 0.875613
5.158700, -3.839888, 1.696725, 26, 0.910972, 0.292734, 0.875613
5.125450, -3.523970, 1.573675, 26, 0.910972, 0.292734, 0.875613
5.268385, -3.341770, 1.514295, 26, 0.910972, 0.292734, 0.875613
5.542383, -3.233806, 1.492059, 26, 0.910972, 0.292734, 0.875613
4.960520, -3.690085, 1.386148, 26, 0.910972, 0.292734, 0.875613
5.605238, -3.855719, 1.454161, 26, 0.910972, 0.292734, 0.875613
4.808145, -3.052309, 1.159522, 26, 0.910972, 0.292734, 0.875613
5.042472, -2.946727, 1.131759, 26, 0.910972, 0.292734, 0.875613
4.683554, -3.484053, 1.083359, 26, 0.910972, 0.292734, 0.875613
11.721721, -8.065523, 2.497099, 26, 0.910972, 0.292734, 0.875613
4.964925, -3.153660, 0.974365, 26, 0.910972, 0.292734, 0.875613
11.426987, -6.689228, 2.065186, 26, 0.910972, 0.292734, 0.875613
11.686590, -8.692595, 2.151543, 26, 0.910972, 0.292734, 0.875613
11.725489, -8.073846, 1.962544, 26, 0.910972, 0.292734, 0.875613
11.336981, -7.209447, 1.721559, 26, 0.910972, 0.292734, 0.875613
8.786210, -6.535266, 1.211236, 26, 0.910972, 0.292734, 0.875613
11.687491, -8.053095, 1.428440, 26, 0.910972, 0.292734, 0.875613
11.370486, -7.236608, 1.229915, 26, 0.910972, 0.292734, 0.875613
9.682811, -5.681376, 0.918057, 26, 0.910972, 0.292734, 0.875613
11.699103, -8.063506, 0.911867, 26, 0.910972, 0.292734, 0.875613
11.430108, -6.714648, 0.599190, 26, 0.910972, 0.292734, 0.875613
12.242625, -9.120459, 0.567533, 26, 0.910972, 0.292734, 0.875613
9.232210, -6.370354, 0.309393, 26, 0.910972, 0.292734, 0.875613
11.427989, -7.285542, 0.244846, 26, 0.910972, 0.292734, 0.875613
8.074836, -4.744721, 0.081242, 26, 0.910972, 0.292734, 0.875613
8.526994, -6.357265, 0.007240, 26, 0.910972, 0.292734, 0.875613
9.505579, -6.561922, -0.103623, 26, 0.910972, 0.292734, 0.875613
8.596467, -5.485041, -0.186184, 26, 0.910972, 0.292734, 0.875613
8.082885, -4.756095, -0.261633, 26, 0.910972, 0.292734, 0.875613
8.023775, -5.544376, -0.441687, 26, 0.910972, 0.292734, 0.875613
8.053987, -5.144051, -0.525428, 26, 0.910972, 0.292734, 0.875613
7.841508, -4.617567, -0.587358, 26, 0.910972, 0.292734, 0.875613
6.483592, -4.484635, -0.647446, 26, 0.910972, 0.292734, 0.875613
6.051354, -3.869886, -0.657619, 26, 0.910972, 0.292734, 0.875613
5.998155, -3.534907, -0.706098, 26, 0.910972, 0.292734, 0.875613
5.305057, -3.976927, 2.026550, 26, 0.910972, 0.292734, 0.875613
5.410447, -3.744415, 1.933542, 26, 0.910972, 0.292734, 0.875613
6.452347, -4.113765, 2.166647, 26, 0.910972, 0.292734, 0.875613
5.606482, -3.285884, 1.773139, 26, 0.910972, 0.292734, 0.875613
5.184814, -3.884102, 1.709225, 26, 0.910972, 0.292734, 0.875613
5.119397, -3.542988, 1.575147, 26, 0.910972, 0.292734, 0.875613
5.272031, -3.366810, 1.518305, 26, 0.910972, 0.292734, 0.875613
5.601297, -3.291257, 1.510630, 26, 0.910972, 0.292734, 0.875613
4.949957, -3.705871, 1.386367, 26, 0.910972, 0.292734, 0.875613
5.800813, -4.016523, 1.508088, 26, 0.910972, 0.292734, 0.875613
5.012605, -3.203723, 1.211193, 26, 0.910972, 0.292734, 0.875613
5.036792, -2.964174, 1.132520, 26, 0.910972, 0.292734, 0.875613
4.694094, -3.514315, 1.088285, 26, 0.910972, 0.292734, 0.875613
5.318107, -3.683394, 1.135328, 26, 0.910972, 0.292734, 0.875613
4.942759, -3.160905, 0.971914, 26, 0.910972, 0.292734, 0.875613
11.405560, -6.723752, 2.065032, 26, 0.910972, 0.292734, 0.875613
11.659866, -8.728409, 2.151543, 26, 0.910972, 0.292734, 0.875613
11.714504, -8.119374, 1.964866, 26, 0.910972, 0.292734, 0.875613
11.490232, -7.356507, 1.748250, 26, 0.910972, 0.292734, 0.875613
8.781237, -6.573508, 1.213325, 26, 0.910972, 0.292734, 0.875613
11.720777, -8.129175, 1.435549, 26, 0.910972, 0.292734, 0.875613
11.408603, -7.310142, 1.236458, 26, 0.910972, 0.292734, 0.875613
9.504876, -5.616243, 0.902816, 26, 0.910972, 0.292734, 0.875613
8.701825, -6.519988, 0.802122, 26, 0.910972, 0.292734, 0.875613
11.745644, -8.148851, 0.917439, 26, 0.910972, 0.292734, 0.875613
11.416332, -6.753752, 0.599552, 26, 0.910972, 0.292734, 0.875613
12.224180, -9.165170, 0.567979, 26, 0.910972, 0.292734, 0.875613
9.144478, -6.351319, 0.307105, 26, 0.910972, 0.292734, 0.875613
11.420730, -7.330290, 0.245171, 26, 0.910972, 0.292734, 0.875613
8.079175, -4.780675, 0.081433, 26, 0.910972, 0.292734, 0.875613
8.516249, -6.389998, 0.007247, 26, 0.910972, 0.292734, 0.875613
9.471443, -6.581354, -0.103470, 26, 0.910972, 0.292734, 0.875613
8.580441, -5.511929, -0.186202, 26, 0.910972, 0.292734, 0.875613
8.080295, -4.788005, -0.262024, 26, 0.910972, 0.292734, 0.875613
8.028871, -5.584368, -0.442909, 26, 0.910972, 0.292734, 0.875613
8.044046, -5.172517, -0.525812, 26, 0.910972, 0.292734, 0.875613
7.838463, -4.648220, -0.588196, 26, 0.910972, 0.292734, 0.875613
6.046989, -3.893285, -0.658440, 26, 0.910972, 0.292734, 0.875613
5.987282, -3.553292, -0.706098, 26, 0.910972, 0.292734, 0.875613
4.863034, -2.888147, -0.783328, 26, 0.910972, 0.292734, 0.875613
5.675308, -4.281744, 2.172995, 26, 0.910972, 0.292734, 0.875613
6.789210, -4.729489, 2.431447, 26, 0.910972, 0.292734, 0.875613
6.817025, -4.375743, 2.293600, 26, 0.910972, 0.292734, 0.875613
5.392825, -3.182931, 1.708647, 26, 0.910972, 0.292734, 0.875613
5.287912, -3.986722, 1.747236, 26, 0.910972, 0.292734, 0.875613
5.120436, -3.566990, 1.578826, 26, 0.910972, 0.292734, 0.875613
5.266582, -3.386121, 1.519720, 26, 0.910972, 0.292734, 0.875613
5.635601, -3.334715, 1.522634, 26, 0.910972, 0.292734, 0.875613
4.947916, -3.728086, 1.388992, 26, 0.910972, 0.292734, 0.875613
5.275003, -3.676442, 1.374315, 26, 0.910972, 0.292734, 0.875613
5.799600, -3.731828, 1.404114, 26, 0.910972, 0.292734, 0.875613
5.026830, -2.979113, 1.132330, 26, 0.910972, 0.292734, 0.875613
4.685646, -3.530475, 1.088833, 26, 0.910972, 0.292734, 0.875613
5.306782, -3.699692, 1.135328, 26, 0.910972, 0.292734, 0.875613
4.951288, -3.187804, 0.975509, 26, 0.910972, 0.292734, 0.875613
7.286322, -4.325576, 1.321620, 26, 0.910972, 0.292734, 0.875613
11.720736, -8.830214, 2.167764, 26, 0.910972, 0.292734, 0.875613
11.492620, -7.407846, 1.752063, 26, 0.910972, 0.292734, 0.875613
10.772972, -6.403081, 1.485947, 26, 0.910972, 0.292734, 0.875613
11.710467, -8.175347, 1.437352, 26, 0.910972, 0.292734, 0.875613
11.316664, -7.300302, 1.228915, 26, 0.910972, 0.292734, 0.875613
9.643486, -5.738133, 0.917649, 26, 0.910972, 0.292734, 0.875613
11.721407, -8.185419, 0.917503, 26, 0.910972, 0.292734, 0.875613
8.065833, -5.207201, 0.524995, 26, 0.910972, 0.292734, 0.875613
11.413581, -6.799482, 0.600500, 26, 0.910972, 0.292734, 0.875613
12.230306, -9.228512, 0.569576, 26, 0.910972, 0.292734, 0.875613
9.118396, -6.374762, 0.306884, 26, 0.910972, 0.292734, 0.875613
11.403226, -7.368549, 0.245280, 26, 0.910972, 0.292734, 0.875613
8.072201, -4.810046, 0.081511, 26, 0.910972, 0.292734, 0.875613
8.514958, -6.429955, 0.007263, 26, 0.910972, 0.292734, 0.875613
9.441374, -6.603503, -0.103362, 26, 0.910972, 0.292734, 0.875613
8.594554, -5.558317, -0.186878, 26, 0.910972, 0.292734, 0.875613
8.070717, -4.815846, -0.262191, 26, 0.910972, 0.292734, 0.875613
8.031341, -5.622724, -0.443995, 26, 0.910972, 0.292734, 0.875613
8.045741, -5.208566, -0.526965, 26, 0.910972, 0.292734, 0.875613
7.847299, -4.686060, -0.589935, 26, 0.910972, 0.292734, 0.875613
6.052564, -3.923193, -0.660354, 26, 0.910972, 0.292734, 0.875613
5.960126, -3.561947, -0.704181, 26, 0.910972, 0.292734, 0.875613
4.843949, -2.896952, -0.781681, 26, 0.910972, 0.292734, 0.875613
6.000319, -4.555904, 2.302778, 26, 0.910972, 0.292734, 0.875613
6.734605, -4.722204, 2.417068, 26, 0.910972, 0.292734, 0.875613
6.801952, -4.395593, 2.293055, 26, 0.910972, 0.292734, 0.875613
5.359813, -3.185660, 1.701277, 26, 0.910972, 0.292734, 0.875613
5.212493, -3.955001, 1.726318, 26, 0.910972, 0.292734, 0.875613
5.409512, -3.793068, 1.671539, 26, 0.910972, 0.292734, 0.875613
5.261879, -3.405960, 1.521371, 26, 0.910972, 0.292734, 0.875613
5.887240, -3.508046, 1.593522, 26, 0.910972, 0.292734, 0.875613
4.954338, -3.756809, 1.394024, 26, 0.910972, 0.292734, 0.875613
5.365370, -3.763934, 1.400860, 26, 0.910972, 0.292734, 0.875613
6.045538, -3.916359, 1.466559, 26, 0.910972, 0.292734, 0.875613
5.017666, -2.994521, 1.132330, 26, 0.910972, 0.292734, 0.875613
5.752024, -4.361684, 1.339737, 26, 0.910972, 0.292734, 0.875613
5.288957, -3.711429, 1.133945, 26, 0.910972, 0.292734, 0.875613
4.935690, -3.199223, 0.974365, 26, 0.910972, 0.292734, 0.875613
5.116384, -3.058645, 0.929727, 26, 0.910972, 0.292734, 0.875613
11.691226, -8.864338, 2.167326, 26, 0.910972, 0.292734, 0.875613
11.781859, -7.645547, 1.799725, 26, 0.910972, 0.292734, 0.875613
10.651878, -6.375413, 1.471935, 26, 0.910972, 0.292734, 0.875613
11.694181, -8.866579, 1.623301, 26, 0.910972, 0.292734, 0.875613
11.680446, -8.207804, 1.436751, 26, 0.910972, 0.292734, 0.875613
11.389425, -7.396821, 1.239275, 26, 0.910972, 0.292734, 0.875613
9.472801, -5.675995, 0.903060, 26, 0.910972, 0.292734, 0.875613
8.572680, -6.505736, 0.793882, 26, 0.910972, 0.292734, 0.875613
11.747675, -8.257495, 0.921538, 26, 0.910972, 0.292734, 0.875613
11.599610, -7.539083, 0.756506, 26, 0.910972, 0.292734, 0.875613
11.402947, -6.840633, 0.601042, 26, 0.910972, 0.292734, 0.875613
11.758128, -8.274046, 0.396578, 26, 0.910972, 0.292734, 0.875613
11.677253, -7.596506, 0.251674, 26, 0.910972, 0.292734, 0.875613
8.062550, -4.837876, 0.081563, 26, 0.910972, 0.292734, 0.875613
8.503950, -6.462704, 0.007270, 26, 0.910972, 0.292734, 0.875613
9.403899, -6.620350, -0.103174, 26, 0.910972, 0.292734, 0.875613
8.571596, -5.580840, -0.186750, 26, 0.910972, 0.292734, 0.875613
8.065330, -4.846247, -0.262498, 26, 0.910972, 0.292734, 0.875613
8.023035, -5.653668, -0.444492, 26, 0.910972, 0.292734, 0.875613
8.034743, -5.236496, -0.527294, 26, 0.910972, 0.292734, 0.875613
7.821768, -4.703428, -0.589097, 26, 0.910972, 0.292734, 0.875613
6.055511, -3.951540, -0.661995, 26, 0.910972, 0.292734, 0.875613
5.933826, -3.570981, -0.702365, 26, 0.910972, 0.292734, 0.875613
5.660327, -4.325196, 2.177380, 26, 0.910972, 0.292734, 0.875613
6.495900, -4.584619, 2.336433, 26, 0.910972, 0.292734, 0.875613
5.395584, -3.510275, 1.822566, 26, 0.910972, 0.292734, 0.875613
5.345048, -3.199116, 1.699697, 26, 0.910972, 0.292734, 0.875613
5.258739, -4.015572, 1.745706, 26, 0.910972, 0.292734, 0.875613
5.074691, -3.581571, 1.571468, 26, 0.910972, 0.292734, 0.875613
5.344220, -3.482570, 1.548260, 26, 0.910972, 0.292734, 0.875613
6.378403, -3.827282, 1.729638, 26, 0.910972, 0.292734, 0.875613
4.969939, -3.792710, 1.401681, 26, 0.910972, 0.292734, 0.875613
5.267523, -3.719457, 1.378286, 26, 0.910972, 0.292734, 0.875613
5.837330, -3.806955, 1.418878, 26, 0.910972, 0.292734, 0.875613
5.083347, -3.054908, 1.149261, 26, 0.910972, 0.292734, 0.875613
5.732363, -4.374539, 1.338277, 26, 0.910972, 0.292734, 0.875613
5.271914, -3.723660, 1.132735, 26, 0.910972, 0.292734, 0.875613
4.932461, -3.218663, 0.975673, 26, 0.910972, 0.292734, 0.875613
5.103590, -3.072289, 0.929110, 26, 0.910972, 0.292734, 0.875613
11.623866, -8.869560, 2.159873, 26, 0.910972, 0.292734, 0.875613
11.762499, -7.684370, 1.800361, 26, 0.910972, 0.292734, 0.875613
10.593145, -6.384482, 1.466519, 26, 0.910972, 0.292734, 0.875613
11.685099, -8.916282, 1.625829, 26, 0.910972, 0.292734, 0.875613
11.712072, -8.283818, 1.443760, 26, 0.910972, 0.292734, 0.875613
11.660077, -7.623557, 1.271263, 26, 0.910972, 0.292734, 0.875613
9.596149, -5.789988, 0.916508, 26, 0.910972, 0.292734, 0.875613
11.741024, -8.306755, 0.923011, 26, 0.910972, 0.292734, 0.875613
11.670006, -7.635866, 0.762621, 26, 0.910972, 0.292734, 0.875613
11.386182, -6.878167, 0.601268, 26, 0.910972, 0.292734, 0.875613
11.736768, -8.312969, 0.396716, 26, 0.910972, 0.292734, 0.875613
11.721643, -7.676666, 0.253137, 26, 0.910972, 0.292734, 0.875613
8.051949, -4.865174, 0.081607, 26, 0.910972, 0.292734, 0.875613
8.502352, -6.502736, 0.007286, 26, 0.910972, 0.292734, 0.875613
9.325617, -6.608121, -0.102537, 26, 0.910972, 0.292734, 0.875613
8.582864, -5.625747, -0.187371, 26, 0.910972, 0.292734, 0.875613
8.056411, -4.874591, -0.262693, 26, 0.910972, 0.292734, 0.875613
8.021135, -5.689236, -0.445352, 26, 0.910972, 0.292734, 0.875613
8.026153, -5.266052, -0.527788, 26, 0.910972, 0.292734, 0.875613
7.838885, -4.746527, -0.591481, 26, 0.910972, 0.292734, 0.875613
6.058341, -3.979941, -0.663637, 26, 0.910972, 0.292734, 0.875613
5.946667, -3.603607, -0.705190, 26, 0.910972, 0.292734, 0.875613
5.387763, -4.143166, 2.077411, 26, 0.910972, 0.292734, 0.875613
6.618683, -4.701763, 2.385773, 26, 0.910972, 0.292734, 0.875613
5.664090, -3.709742, 1.917100, 26, 0.910972, 0.292734, 0.875613
5.320335, -3.206535, 1.694959, 26, 0.910972, 0.292734, 0.875613
5.975508, -4.591987, 1.988314, 26, 0.910972, 0.292734, 0.875613
5.085808, -3.612843, 1.578335, 26, 0.910972, 0.292734, 0.875613
5.441578, -3.569845, 1.579631, 26, 0.910972, 0.292734, 0.875613
6.388307, -3.859930, 1.735526, 26, 0.910972, 0.292734, 0.875613
5.277894, -4.053402, 1.492035, 26, 0.910972, 0.292734, 0.875613
5.232971, -3.719171, 1.372224, 26, 0.910972, 0.292734, 0.875613
4.741100, -3.112796, 1.154734, 26, 0.910972, 0.292734, 0.875613
5.342725, -3.233137, 1.210139, 26, 0.910972, 0.292734, 0.875613
5.296273, -4.067518, 1.239376, 26, 0.910972, 0.292734, 0.875613
5.262873, -3.741529, 1.133254, 26, 0.910972, 0.292734, 0.875613
5.020684, -3.298240, 0.995121, 26, 0.910972, 0.292734, 0.875613
5.078932, -3.078713, 0.926336, 26, 0.910972, 0.292734, 0.875613
11.480477, -8.816007, 2.138245, 26, 0.910972, 0.292734, 0.875613
11.739698, -7.720966, 1.800488, 26, 0.910972, 0.292734, 0.875613
10.534457, -6.393252, 1.461102, 26, 0.910972, 0.292734, 0.875613
11.674244, -8.964803, 1.628138, 26, 0.910972, 0.292734, 0.875613
11.686603, -8.319712, 1.443760, 26, 0.910972, 0.292734, 0.875613
11.718154, -7.712951, 1.280169, 26, 0.910972, 0.292734, 0.875613
8.519158, -6.547882, 0.792631, 26, 0.910972, 0.292734, 0.875613
11.718735, -8.345052, 0.923267, 26, 0.910972, 0.292734, 0.875613
9.645261, -6.353388, 0.631577, 26, 0.910972, 0.292734, 0.875613
11.419650, -6.946293, 0.604157, 26, 0.910972, 0.292734, 0.875613
8.453551, -6.501682, 0.396460, 26, 0.910972, 0.292734, 0.875613
11.755976, -8.380852, 0.398233, 26, 0.910972, 0.292734, 0.875613
11.704714, -7.716994, 0.253282, 26, 0.910972, 0.292734, 0.875613
8.051508, -4.898690, 0.081754, 26, 0.910972, 0.292734, 0.875613
8.482362, -6.528790, 0.007286, 26, 0.910972, 0.292734, 0.875613
9.322396, -6.648894, -0.102725, 26, 0.910972, 0.292734, 0.875613
8.573075, -5.657008, -0.187535, 26, 0.910972, 0.292734, 0.875613
8.041418, -4.899285, -0.262693, 26, 0.910972, 0.292734, 0.875613
8.025594, -5.729490, -0.446573, 26, 0.910972, 0.292734, 0.875613
8.029955, -5.303858, -0.529106, 26, 0.910972, 0.292734, 0.875613
7.792761, -4.751333, -0.589097, 26, 0.910972, 0.292734, 0.875613
6.055239, -4.004552, -0.664639, 26, 0.910972, 0.292734, 0.875613
5.936432, -3.622352, -0.705291, 26, 0.910972, 0.292734, 0.875613
5.191245, -4.017450, 2.006381, 26, 0.910972, 0.292734, 0.875613
5.855108, -3.860572, 1.985752, 26, 0.910972, 0.292734, 0.875613
5.310473, -3.222843, 1.694959, 26, 0.910972, 0.292734, 0.875613
5.845897, -4.520979, 1.949792, 26, 0.910972, 0.292734, 0.875613
5.203244, -3.720338, 1.618315, 26, 0.910972, 0.292734, 0.875613
5.540883, -3.659357, 1.611710, 26, 0.910972, 0.292734, 0.875613
6.338158, -3.856222, 1.725108, 26, 0.910972, 0.292734, 0.875613
5.442234, -4.206222, 1.542134, 26, 0.910972, 0.292734, 0.875613
5.243011, -3.750570, 1.377868, 26, 0.910972, 0.292734, 0.875613
5.813044, -3.842160, 1.418678, 26, 0.910972, 0.292734, 0.875613
5.266551, -3.209156, 1.195110, 26, 0.910972, 0.292734, 0.875613
5.433912, -4.199790, 1.274593, 26, 0.910972, 0.292734, 0.875613
5.326664, -3.811535, 1.149502, 26, 0.910972, 0.292734, 0.875613
5.026176, -3.323967, 0.998226, 26, 0.910972, 0.292734, 0.875613
5.062716, -3.090162, 0.925103, 26, 0.910972, 0.292734, 0.875613
11.482338, -8.873569, 2.143652, 26, 0.910972, 0.292734, 0.875613
11.730841, -7.766803, 1.802776, 26, 0.910972, 0.292734, 0.875613
11.269784, -6.886912, 1.566014, 26, 0.910972, 0.292734, 0.875613
11.652190, -9.004831, 1.628908, 26, 0.910972, 0.292734, 0.875613
11.713594, -8.393195, 1.450269, 26, 0.910972, 0.292734, 0.875613
11.701077, -7.753266, 1.280896, 26, 0.910972, 0.292734, 0.875613
8.426455, -6.517852, 0.785863, 26, 0.910972, 0.292734, 0.875613
11.701188, -8.386779, 0.923908, 26, 0.910972, 0.292734, 0.875613
9.595765, -6.363084, 0.629611, 26, 0.910972, 0.292734, 0.875613
11.366765, -6.961990, 0.602487, 26, 0.910972, 0.292734, 0.875613
11.721275, -8.410469, 0.397929, 26, 0.910972, 0.292734, 0.875613
11.706808, -7.770008, 0.253842, 26, 0.910972, 0.292734, 0.875613
8.042409, -4.927026, 0.081815, 26, 0.910972, 0.292734, 0.875613
8.494705, -6.579890, 0.007314, 26, 0.910972, 0.292734, 0.875613
9.244278, -6.636061, -0.102089, 26, 0.910972, 0.292734, 0.875613
8.549849, -5.679411, -0.187407, 26, 0.910972, 0.292734, 0.875613
